# .PCD v0.7 - Point Cloud Data file format
VERSION 0.7
FIELDS x y z rgb
SIZE 4 4 4 4
TYPE F F F F
COUNT 1 1 1 1
WIDTH 868
HEIGHT 1
VIEWPOINT 0 0 0 1 0 0 0
POINTS 868
DATA ascii
-2.5261617 -4.2451696 -8.9108944e-06 1.3829344e-38
-2.450243 -4.2378483 -9.5462801e-06 1.3829344e-38
-2.3498635 -4.2396145 -9.2434884e-06 1.3829344e-38
-2.2494392 -4.2378478 -9.3245508e-06 1.3829344e-38
-2.1500013 -4.239408 -9.2107421e-06 1.3829344e-38
-2.0496311 -4.2380795 -9.3871467e-06 1.3829344e-38
-1.9501925 -4.2387309 -9.5441937e-06 1.3829344e-38
-1.8497733 -4.2387328 -9.7935017e-06 1.3829344e-38
-1.7855047 -4.2387319 -9.5168753e-06 1.3829344e-38
1.76618 -4.2377849 -9.948867e-06 1.3829344e-38
1.8495889 -4.2387338 -9.876986e-06 1.3829344e-38
1.9500084 -4.2387342 -9.9608533e-06 1.3829344e-38
2.0504277 -4.2387333 -9.8372502e-06 1.3829344e-38
2.1498592 -4.2380819 -9.894371e-06 1.3829344e-38
2.2502449 -4.2394118 -9.7848933e-06 1.3829344e-38
2.3496649 -4.2378502 -9.7870825e-06 1.3829344e-38
2.4490826 -4.2389565 -9.8165201e-06 1.3829344e-38
2.5449932 -4.2411318 -9.7466555e-06 1.3829344e-38
2.6055241 -4.2719507 -1.0609627e-05 1.3829344e-38
-2.5083506 -4.1786242 -7.8082085e-06 1.3829344e-38
-2.4485412 -4.1525631 -8.4784569e-06 1.3829344e-38
-2.3497336 -4.1521282 -9.2959872e-06 1.3829344e-38
-2.250056 -4.1510649 -9.7036364e-06 1.3829344e-38
-2.1493833 -4.1519184 -9.6788772e-06 1.3829344e-38
-2.0496578 -4.1525736 -9.7362363e-06 1.3829344e-38
-1.9510299 -4.151289 -9.494669e-06 1.3829344e-38
-1.8493316 -4.1519179 -9.7499442e-06 1.3829344e-38
-1.7861629 -4.1519184 -9.308259e-06 1.3829344e-38
1.7669942 -4.1519189 -9.493695e-06 1.3829344e-38
1.8499032 -4.1519184 -9.4597535e-06 1.3829344e-38
1.9486045 -4.1519175 -9.4037787e-06 1.3829344e-38
2.0502954 -4.151288 -9.471295e-06 1.3829344e-38
2.1499417 -4.1519213 -9.2911723e-06 1.3829344e-38
2.2496266 -4.1525431 -9.4338957e-06 1.3829344e-38
2.3503089 -4.1512885 -9.3614353e-06 1.3829344e-38
2.450973 -4.15171 -9.2843002e-06 1.3829344e-38
2.5265093 -4.1581407 -9.3678636e-06 1.3829344e-38
-2.4301689 -4.0650177 -8.8053785e-06 1.3829344e-38
-2.349293 -4.0578027 -8.4308476e-06 1.3829344e-38
-2.2493565 -4.0574841 -9.0692192e-06 1.3829344e-38
-2.1502142 -4.0571594 -9.4547868e-06 1.3829344e-38
-2.0502772 -4.0578032 -9.4010284e-06 1.3829344e-38
-1.9495653 -4.0578036 -9.3313365e-06 1.3829344e-38
-1.8488531 -4.0578032 -9.4157003e-06 1.3829344e-38
-1.7868766 -4.0578027 -9.0758003e-06 1.3829344e-38
1.7674389 -4.0592341 -9.1791153e-06 1.3829344e-38
1.8486333 -4.0568104 -9.1214333e-06 1.3829344e-38
1.9470824 -4.0578032 -9.1020875e-06 1.3829344e-38
2.0477941 -4.0578032 -9.0470685e-06 1.3829344e-38
2.1492856 -4.0571833 -9.0924177e-06 1.3829344e-38
2.2507548 -4.0578032 -9.0250605e-06 1.3829344e-38
2.3506954 -4.0571585 -9.0245157e-06 1.3829344e-38
2.4478679 -4.060153 -9.022775e-06 1.3829344e-38
2.5095644 -4.0938458 -9.8347664e-06 1.3829344e-38
-2.410522 -3.9835312 -8.9208288e-06 1.3829344e-38
-2.3492749 -3.958483 -8.3295126e-06 1.3829344e-38
-2.2504842 -3.9572434 -8.3126242e-06 1.3829344e-38
-2.1503253 -3.9572387 -8.830657e-06 1.3829344e-38
-2.0501542 -3.9575291 -8.9140085e-06 1.3829344e-38
-1.9485371 -3.9563584 -8.9157875e-06 1.3829344e-38
-1.8483412 -3.9572387 -8.8966808e-06 1.3829344e-38
-1.7858909 -3.9537685 -8.9126479e-06 1.3829344e-38
1.7640644 -3.9563437 -9.5123596e-06 1.3829344e-38
1.8491527 -3.9563706 -9.4122743e-06 1.3829344e-38
1.9514655 -3.9581234 -9.4121961e-06 1.3829344e-38
2.0516872 -3.957242 -9.3790204e-06 1.3829344e-38
2.1503296 -3.957242 -9.3973604e-06 1.3829344e-38
2.2497222 -3.9566453 -9.3434792e-06 1.3829344e-38
2.3498669 -3.9569411 -9.3940534e-06 1.3829344e-38
2.4269457 -3.9650002 -9.7571001e-06 1.3829344e-38
-2.3289094 -3.8612268 -8.250986e-06 1.3829344e-38
-2.2497005 -3.8509023 -7.8023932e-06 1.3829344e-38
-2.1495426 -3.8518271 -8.6516138e-06 1.3829344e-38
-2.0500116 -3.8503146 -8.8479783e-06 1.3829344e-38
-1.9504036 -3.8523059 -9.180605e-06 1.3829344e-38
-1.8503232 -3.8504405 -9.1703923e-06 1.3829344e-38
-1.7847325 -3.8513615 -9.1691809e-06 1.3829344e-38
1.7656604 -3.8513615 -9.1746997e-06 1.3829344e-38
1.8509928 -3.851362 -9.1308639e-06 1.3829344e-38
1.9511654 -3.8513618 -9.1439642e-06 1.3829344e-38
2.0495007 -3.8503151 -9.0819822e-06 1.3829344e-38
2.1496387 -3.8524091 -9.0790381e-06 1.3829344e-38
2.2498012 -3.8503144 -9.0334152e-06 1.3829344e-38
2.3462851 -3.8546607 -9.0115782e-06 1.3829344e-38
2.4086637 -3.8939211 -8.7618828e-06 1.3829344e-38
-2.3079605 -3.7815692 -9.2983246e-06 1.3829344e-38
-2.2475278 -3.7507398 -8.1694488e-06 1.3829344e-38
-2.149276 -3.7504463 -8.3809309e-06 1.3829344e-38
-2.0498071 -3.7501948 -8.2622555e-06 1.3829344e-38
-1.9511333 -3.7491283 -8.1833668e-06 1.3829344e-38
-1.8509182 -3.7499263 -8.7993485e-06 1.3829344e-38
-1.7855816 -3.7499251 -8.7022781e-06 1.3829344e-38
1.7671099 -3.7491462 -9.3112822e-06 1.3829344e-38
1.8513609 -3.7499268 -9.2370174e-06 1.3829344e-38
1.9508592 -3.7491207 -9.2485061e-06 1.3829344e-38
2.0495229 -3.7501893 -9.2464943e-06 1.3829344e-38
2.1497152 -3.7504475 -9.1462898e-06 1.3829344e-38
2.2499053 -3.749402 -9.1566553e-06 1.3829344e-38
2.3243005 -3.7569103 -9.221415e-06 1.3829344e-38
-2.228513 -3.6615458 -7.8040503e-06 1.3829344e-38
-2.1505587 -3.6526062 -7.6265896e-06 1.3829344e-38
-2.0499103 -3.6524074 -7.813117e-06 1.3829344e-38
-1.9498305 -3.6529117 -7.9302563e-06 1.3829344e-38
-1.8503481 -3.6529133 -8.7122125e-06 1.3829344e-38
-1.7863947 -3.652915 -9.3032913e-06 1.3829344e-38
1.7664406 -3.6529114 -8.6327391e-06 1.3829344e-38
1.851712 -3.652914 -8.6852478e-06 1.3829344e-38
1.9511958 -3.6529119 -8.6128712e-06 1.3829344e-38
2.0506797 -3.6529138 -8.6923437e-06 1.3829344e-38
2.1501637 -3.652914 -8.7874278e-06 1.3829344e-38
2.2466877 -3.6553423 -8.5922384e-06 1.3829344e-38
2.3089743 -3.6904764 -8.4638596e-06 1.3829344e-38
-2.2077754 -3.5819128 -8.1857042e-06 1.3829344e-38
-2.1469345 -3.5529125 -8.1680437e-06 1.3829344e-38
-2.049993 -3.5523639 -8.3862351e-06 1.3829344e-38
-1.9493285 -3.5508409 -8.4909525e-06 1.3829344e-38
-1.8497525 -3.5515935 -8.238213e-06 1.3829344e-38
-1.7872425 -3.5515919 -8.2453089e-06 1.3829344e-38
1.7670681 -3.552897 -9.0745461e-06 1.3829344e-38
1.8502972 -3.5507412 -8.9393261e-06 1.3829344e-38
1.9493173 -3.5515957 -8.9222476e-06 1.3829344e-38
2.0494578 -3.5511255 -8.7933595e-06 1.3829344e-38
2.1507285 -3.5515959 -8.9199048e-06 1.3829344e-38
2.2247679 -3.5602751 -8.9250116e-06 1.3829344e-38
-2.1263359 -3.4559152 -6.9773928e-06 1.3829344e-38
-2.0496175 -3.4473798 -7.1972609e-06 1.3829344e-38
-1.9498349 -3.4473968 -7.2168368e-06 1.3829344e-38
-1.8511137 -3.4460001 -6.9971179e-06 1.3829344e-38
-1.7918466 -3.4469402 -6.8128111e-06 1.3829344e-38
1.764321 -3.4469316 -8.513246e-06 1.3829344e-38
1.8490686 -3.446933 -8.4184467e-06 1.3829344e-38
1.950766 -3.4469321 -8.283343e-06 1.3829344e-38
2.0510187 -3.4460075 -8.7326653e-06 1.3829344e-38
2.1453104 -3.4514203 -8.6944183e-06 1.3829344e-38
2.2071898 -3.4890635 -9.2983246e-06 1.3829344e-38
-2.1078889 -3.3796351 -6.0399375e-06 1.3829344e-38
-2.0476403 -3.3489885 -7.1539766e-06 1.3829344e-38
-1.9511851 -3.3470256 -6.9194371e-06 1.3829344e-38
-1.8518602 -3.3470268 -6.8174468e-06 1.3829344e-38
-1.7877095 -3.3447249 -6.8453642e-06 1.3829344e-38
1.7667395 -3.3470297 -8.3486239e-06 1.3829344e-38
1.8495102 -3.347028 -8.2678262e-06 1.3829344e-38
1.9488349 -3.347029 -8.3578961e-06 1.3829344e-38
2.0492759 -3.3463786 -8.3174391e-06 1.3829344e-38
2.122447 -3.3557432 -8.4123094e-06 1.3829344e-38
-2.0261807 -3.2609792 -6.9298835e-06 1.3829344e-38
-1.949692 -3.2509964 -6.9814701e-06 1.3829344e-38
-1.8512262 -3.2517912 -6.9572811e-06 1.3829344e-38
-1.7865174 -3.251792 -7.2956086e-06 1.3829344e-38
1.7662547 -3.2512264 -8.5438551e-06 1.3829344e-38
1.8499317 -3.2517953 -8.6534592e-06 1.3829344e-38
1.9497809 -3.2514074 -8.7323488e-06 1.3829344e-38
2.0461195 -3.2552245 -8.5507827e-06 1.3829344e-38
2.1066751 -3.2901638 -8.384387e-06 1.3829344e-38
-2.0078316 -3.1858466 -7.0730844e-06 1.3829344e-38
-1.9461019 -3.1557071 -6.7960541e-06 1.3829344e-38
-1.8487231 -3.1531563 -6.3005937e-06 1.3829344e-38
-1.785768 -3.1565509 -6.0335283e-06 1.3829344e-38
1.7669575 -3.155015 -7.6471151e-06 1.3829344e-38
1.8489728 -3.153151 -7.8236617e-06 1.3829344e-38
1.9482594 -3.1539114 -7.6794195e-06 1.3829344e-38
2.0230386 -3.1617084 -7.4420655e-06 1.3829344e-38
-1.9273337 -3.0638433 -6.3708571e-06 1.3829344e-38
-1.8495363 -3.0538199 -6.1670939e-06 1.3829344e-38
-1.7852492 -3.0541587 -6.2547624e-06 1.3829344e-38
1.7649648 -3.0536366 -7.9541369e-06 1.3829344e-38
1.848917 -3.0534227 -7.8550729e-06 1.3829344e-38
1.9450146 -3.0581987 -7.8861531e-06 1.3829344e-38
2.0062435 -3.0965648 -7.5101852e-06 1.3829344e-38
-1.9079889 -2.9880693 -6.9737434e-06 1.3829344e-38
-1.8459445 -2.9554987 -6.5101517e-06 1.3829344e-38
-1.7862564 -2.9530623 -6.5118074e-06 1.3829344e-38
1.7665099 -2.9522479 -7.6201227e-06 1.3829344e-38
1.8512501 -2.9530663 -7.6688384e-06 1.3829344e-38
1.9243404 -2.9630055 -8.0924765e-06 1.3829344e-38
-1.8247795 -2.8610151 -6.2121285e-06 1.3829344e-38
-1.7855297 -2.8484566 -5.943019e-06 1.3829344e-38
1.7667592 -2.8517373 -7.4166005e-06 1.3829344e-38
1.8454953 -2.8552456 -7.4913628e-06 1.3829344e-38
1.9066242 -2.8943012 -7.8678131e-06 1.3829344e-38
-1.8060808 -2.7862005 -7.0929527e-06 1.3829344e-38
-1.7834077 -2.7639563 -6.1035157e-06 1.3829344e-38
1.7651119 -2.7483544 -7.5885227e-06 1.3829344e-38
1.8207141 -2.7597954 -7.6256101e-06 1.3829344e-38
1.7601669 -2.6541395 -7.5164594e-06 1.3829344e-38
1.8040205 -2.6912673 -8.066495e-06 1.3829344e-38
1.7412455 -2.5777614 -7.4863433e-06 1.3829344e-38
-1.6121744 -2.4114287 -5.9008598e-06 1.3829344e-38
-1.5501854 -2.4099231 -6.1750411e-06 1.3829344e-38
-1.4499958 -2.4099228 -5.4313427e-06 1.3829344e-38
-1.3506594 -2.4097707 -5.9927925e-06 1.3829344e-38
-1.2504792 -2.4100795 -5.783706e-06 1.3829344e-38
-1.1502911 -2.4097693 -5.7725583e-06 1.3829344e-38
-1.0492454 -2.4099243 -5.7260868e-06 1.3829344e-38
-0.94905627 -2.4099233 -5.5411765e-06 1.3829344e-38
-0.8497138 -2.4097674 -5.3479753e-06 1.3829344e-38
-0.75040102 -2.410079 -5.2924815e-06 1.3829344e-38
-0.65020204 -2.4097693 -5.2553114e-06 1.3829344e-38
-0.5500142 -2.41008 -6.4023611e-06 1.3829344e-38
-0.44983423 -2.4097712 -6.7524993e-06 1.3829344e-38
-0.34962684 -2.4100814 -6.7497122e-06 1.3829344e-38
-0.24946588 -2.4097724 -6.8797904e-06 1.3829344e-38
-0.15011947 -2.4099247 -7.0647188e-06 1.3829344e-38
-0.083326809 -2.4099252 -6.8630493e-06 1.3829344e-38
0.073378921 -2.4099243 -6.6280363e-06 1.3829344e-38
0.15044731 -2.4099243 -6.4074993e-06 1.3829344e-38
0.25063622 -2.409925 -6.5272316e-06 1.3829344e-38
0.34998015 -2.4097719 -7.2414591e-06 1.3829344e-38
0.4501465 -2.4100809 -7.2840985e-06 1.3829344e-38
0.54949242 -2.4097698 -7.2902649e-06 1.3829344e-38
0.64967757 -2.4100778 -7.0454712e-06 1.3829344e-38
0.74986064 -2.4097698 -7.2327152e-06 1.3829344e-38
0.84919631 -2.4099245 -7.10734e-06 1.3829344e-38
0.94938529 -2.4099257 -7.3768324e-06 1.3829344e-38
1.0495743 -2.4099247 -7.2471025e-06 1.3829344e-38
1.1497633 -2.4099252 -7.3404635e-06 1.3829344e-38
1.2499518 -2.4099245 -7.1011741e-06 1.3829344e-38
1.3492775 -2.4097693 -6.9840203e-06 1.3829344e-38
1.4494808 -2.410078 -7.3566275e-06 1.3829344e-38
1.5496461 -2.40977 -7.6191177e-06 1.3829344e-38
1.6417331 -2.4171617 -7.7560544e-06 1.3829344e-38
-1.6040546 -2.3860109 -3.8544335e-06 1.3829344e-38
-1.5445933 -2.3508379 -4.9540154e-06 1.3829344e-38
-1.4498154 -2.3480515 -4.9066325e-06 1.3829344e-38
-1.3497068 -2.3478885 -5.1451384e-06 1.3829344e-38
-1.2496026 -2.3479733 -5.0280191e-06 1.3829344e-38
-1.1497223 -2.3478079 -5.7220459e-06 1.3829344e-38
-1.0500768 -2.3478894 -5.2435685e-06 1.3829344e-38
-0.94951475 -2.3479342 -5.7819202e-06 1.3829344e-38
-0.84940344 -2.3478072 -5.3202666e-06 1.3829344e-38
-0.74975824 -2.3479681 -5.5538467e-06 1.3829344e-38
-0.64965171 -2.3478479 -5.4983916e-06 1.3829344e-38
-0.54977328 -2.348011 -6.325201e-06 1.3829344e-38
-0.4501265 -2.3477292 -7.2514408e-06 1.3829344e-38
-0.35024852 -2.3480551 -7.0926803e-06 1.3829344e-38
-0.25014037 -2.3478544 -7.222005e-06 1.3829344e-38
-0.14981198 -2.3477767 -7.2007829e-06 1.3829344e-38
-0.08155819 -2.3475804 -7.0119518e-06 1.3829344e-38
0.073578022 -2.3470018 -7.1629233e-06 1.3829344e-38
0.15004459 -2.3481736 -6.9745602e-06 1.3829344e-38
0.2501618 -2.3480117 -7.1377931e-06 1.3829344e-38
0.35003477 -2.3478529 -6.9305438e-06 1.3829344e-38
0.45014417 -2.3480544 -7.0230058e-06 1.3829344e-38
0.55002052 -2.3477294 -6.9558896e-06 1.3829344e-38
0.64989978 -2.348011 -7.1362274e-06 1.3829344e-38
0.7500059 -2.347934 -7.0710794e-06 1.3829344e-38
0.85010862 -2.3476977 -7.0093975e-06 1.3829344e-38
0.95022053 -2.3478117 -7.0574088e-06 1.3829344e-38
1.0500925 -2.3481333 -6.9469488e-06 1.3829344e-38
1.1499729 -2.3478928 -7.0852971e-06 1.3829344e-38
1.250077 -2.3479314 -6.8890995e-06 1.3829344e-38
1.3499568 -2.3478544 -7.0064298e-06 1.3829344e-38
1.4496032 -2.3478909 -6.8933591e-06 1.3829344e-38
1.5499412 -2.3478963 -6.874041e-06 1.3829344e-38
1.6203038 -2.3589091 -6.9967905e-06 1.3829344e-38
-1.5232733 -2.2605529 -4.5287843e-06 1.3829344e-38
-1.4499857 -2.2508993 -4.7586796e-06 1.3829344e-38
-1.3498187 -2.2510979 -4.6297787e-06 1.3829344e-38
-1.2496529 -2.2511954 -4.6932601e-06 1.3829344e-38
-1.1496854 -2.2509806 -4.5450365e-06 1.3829344e-38
-1.0499249 -2.2509434 -4.5863949e-06 1.3829344e-38
-0.94955367 -2.2509344 -4.4713097e-06 1.3829344e-38
-0.84958577 -2.2510095 -5.0215071e-06 1.3829344e-38
-0.75023353 -2.2510791 -5.1474085e-06 1.3829344e-38
-0.64986259 -2.2509999 -5.2423247e-06 1.3829344e-38
-0.54969174 -2.2509291 -5.8676374e-06 1.3829344e-38
-0.44993225 -2.2510643 -6.4140413e-06 1.3829344e-38
-0.34996814 -2.2511477 -6.7589235e-06 1.3829344e-38
-0.25000444 -2.2508669 -7.0788997e-06 1.3829344e-38
-0.15003899 -2.2506819 -7.0206975e-06 1.3829344e-38
-0.079924956 -2.2501566 -7.1369036e-06 1.3829344e-38
0.073310137 -2.2512643 -7.1254644e-06 1.3829344e-38
0.15006715 -2.2506838 -7.2012144e-06 1.3829344e-38
0.25002816 -2.2510643 -7.1743639e-06 1.3829344e-38
0.34978673 -2.2511306 -7.1667255e-06 1.3829344e-38
0.4495483 -2.2509687 -7.1661261e-06 1.3829344e-38
0.54992193 -2.2511177 -7.0280394e-06 1.3829344e-38
0.65008885 -2.2508812 -7.147205e-06 1.3829344e-38
0.75005424 -2.2509348 -6.9776202e-06 1.3829344e-38
0.84981561 -2.2511647 -7.1076097e-06 1.3829344e-38
0.94957697 -2.2508657 -7.0575775e-06 1.3829344e-38
1.0497469 -2.2510295 -7.2465677e-06 1.3829344e-38
1.1499153 -2.2509992 -7.0532165e-06 1.3829344e-38
1.2500825 -2.2510619 -7.0711462e-06 1.3829344e-38
1.3500464 -2.251049 -7.0163182e-06 1.3829344e-38
1.4498085 -2.2509837 -7.065948e-06 1.3829344e-38
1.5429714 -2.2551088 -7.1095733e-06 1.3829344e-38
1.6031595 -2.293802 -6.5565109e-06 1.3829344e-38
-1.5052884 -2.1899722 -3.3080578e-06 1.3829344e-38
-1.4450899 -2.1556141 -4.0771538e-06 1.3829344e-38
-1.3501796 -2.1521897 -4.098632e-06 1.3829344e-38
-1.2499444 -2.1521895 -4.3027644e-06 1.3829344e-38
-1.1498914 -2.1520748 -4.6552532e-06 1.3829344e-38
-1.0500209 -2.1521654 -5.0891531e-06 1.3829344e-38
-0.94960642 -2.1522193 -4.9405148e-06 1.3829344e-38
-0.84954858 -2.1521337 -5.1722859e-06 1.3829344e-38
-0.74986327 -2.1522756 -5.2863902e-06 1.3829344e-38
-0.64998806 -2.1523018 -5.179078e-06 1.3829344e-38
-0.55012339 -2.1518309 -5.2369724e-06 1.3829344e-38
-0.45006752 -2.1522739 -5.5222076e-06 1.3829344e-38
-0.35001615 -2.1522224 -6.6211005e-06 1.3829344e-38
-0.24995916 -2.1522498 -7.2925741e-06 1.3829344e-38
-0.15009338 -2.1520281 -7.0529263e-06 1.3829344e-38
-0.0769751 -2.151783 -7.3499978e-06 1.3829344e-38
0.072781943 -2.151366 -7.0733513e-06 1.3829344e-38
0.14987846 -2.1524682 -7.1698969e-06 1.3829344e-38
0.24994047 -2.1521366 -7.0831993e-06 1.3829344e-38
0.35017213 -2.152303 -7.2652879e-06 1.3829344e-38
0.45041046 -2.1522241 -7.1651284e-06 1.3829344e-38
0.55027956 -2.1521075 -7.2369612e-06 1.3829344e-38
0.65015149 -2.1521664 -7.1170111e-06 1.3829344e-38
0.75002056 -2.1520822 -7.2561043e-06 1.3829344e-38
0.85007596 -2.1522768 -7.0890655e-06 1.3829344e-38
0.95012724 -2.1522772 -7.1312388e-06 1.3829344e-38
1.0500005 -2.1520233 -7.0116735e-06 1.3829344e-38
1.1500512 -2.1521668 -7.0693277e-06 1.3829344e-38
1.2501054 -2.1521659 -6.9791622e-06 1.3829344e-38
1.3501565 -2.1521957 -6.978295e-06 1.3829344e-38
1.449849 -2.1521947 -7.1337809e-06 1.3829344e-38
1.5204147 -2.1635807 -7.2115599e-06 1.3829344e-38
-1.4231087 -2.0625675 -4.4994354e-06 1.3829344e-38
-1.3501447 -2.0522578 -4.7048711e-06 1.3829344e-38
-1.2502226 -2.0523939 -4.2743932e-06 1.3829344e-38
-1.1501329 -2.0522943 -4.412685e-06 1.3829344e-38
-1.0500507 -2.0521362 -4.8794e-06 1.3829344e-38
-0.9496389 -2.052458 -4.699315e-06 1.3829344e-38
-0.84954935 -2.0522563 -4.7538624e-06 1.3829344e-38
-0.74995196 -2.0522575 -4.3939922e-06 1.3829344e-38
-0.65019673 -2.052294 -4.8504503e-06 1.3829344e-38
-0.56811541 -2.0615094 -4.6621672e-06 1.3829344e-38
-0.44997936 -2.092066 -4.2475185e-06 1.3829344e-38
-0.34954435 -2.0922933 -5.0196281e-06 1.3829344e-38
-0.24991935 -2.0920672 -6.1970204e-06 1.3829344e-38
-0.14948739 -2.0921822 -6.5348363e-06 1.3829344e-38
-0.075330682 -2.0921824 -6.508827e-06 1.3829344e-38
0.072982736 -2.0921822 -6.6227385e-06 1.3829344e-38
0.15024644 -2.092067 -6.5304339e-06 1.3829344e-38
0.24986047 -2.0922942 -6.4758156e-06 1.3829344e-38
0.35030708 -2.092068 -6.4299657e-06 1.3829344e-38
0.44993669 -2.0922966 -6.4261258e-06 1.3829344e-38
0.56761974 -2.0615103 -6.4177948e-06 1.3829344e-38
0.64994675 -2.0522616 -6.6741618e-06 1.3829344e-38
0.74987197 -2.0523281 -6.6153366e-06 1.3829344e-38
0.8497923 -2.0522144 -6.7146775e-06 1.3829344e-38
0.94988227 -2.052433 -6.5992244e-06 1.3829344e-38
1.0501297 -2.052273 -6.5285531e-06 1.3829344e-38
1.1502165 -2.0522637 -6.559238e-06 1.3829344e-38
1.2501386 -2.052331 -6.5218392e-06 1.3829344e-38
1.3502269 -2.0522914 -6.4796268e-06 1.3829344e-38
1.4431869 -2.0568006 -6.4624473e-06 1.3829344e-38
1.5037466 -2.0970821 -6.8346658e-06 1.3829344e-38
-1.4053001 -1.9919319 -4.6044588e-06 1.3829344e-38
-1.3447883 -1.9559404 -3.8475e-06 1.3829344e-38
-1.2503157 -1.9522903 -3.7447189e-06 1.3829344e-38
-1.1501931 -1.9521509 -4.2992256e-06 1.3829344e-38
-1.0498106 -1.9522485 -4.6186587e-06 1.3829344e-38
-0.94892281 -1.9528629 -4.2564102e-06 1.3829344e-38
-0.85023773 -1.952878 -4.2458255e-06 1.3829344e-38
-0.74986315 -1.9522489 -4.1849844e-06 1.3829344e-38
-0.65012467 -1.9521337 -4.324238e-06 1.3829344e-38
-0.57951158 -1.9524616 -4.7641443e-06 1.3829344e-38
0.57937944 -1.9519852 -6.6740295e-06 1.3829344e-38
0.64999449 -1.9522882 -6.5983572e-06 1.3829344e-38
0.74987876 -1.9521736 -6.4923483e-06 1.3829344e-38
0.84991121 -1.9523712 -6.5565109e-06 1.3829344e-38
0.94994074 -1.9520186 -6.3941761e-06 1.3829344e-38
1.049974 -1.9522762 -6.5126842e-06 1.3829344e-38
1.1498594 -1.9521751 -6.6257858e-06 1.3829344e-38
1.2498913 -1.9522727 -6.558259e-06 1.3829344e-38
1.3500699 -1.9522917 -6.5624713e-06 1.3829344e-38
1.4202411 -1.9641149 -6.7342971e-06 1.3829344e-38
-1.3223373 -1.8628424 -3.5754565e-06 1.3829344e-38
-1.2497973 -1.849385 -3.4340642e-06 1.3829344e-38
-1.1500351 -1.8496633 -3.5532155e-06 1.3829344e-38
-1.0501446 -1.8494935 -4.1511653e-06 1.3829344e-38
-0.94975775 -1.8495541 -4.1078397e-06 1.3829344e-38
-0.84974068 -1.8495846 -4.132989e-06 1.3829344e-38
-0.75010437 -1.8494148 -4.2390825e-06 1.3829344e-38
-0.65009153 -1.8495227 -4.2521951e-06 1.3829344e-38
-0.57945526 -1.8498656 -4.4461453e-06 1.3829344e-38
0.57932788 -1.8494087 -6.7302367e-06 1.3829344e-38
0.64996046 -1.8496537 -6.7449864e-06 1.3829344e-38
0.75009948 -1.8495251 -6.8458917e-06 1.3829344e-38
0.85011262 -1.8495563 -6.8107247e-06 1.3829344e-38
0.95000136 -1.8493555 -6.9120474e-06 1.3829344e-38
1.0500158 -1.8496044 -6.906112e-06 1.3829344e-38
1.1501536 -1.8495226 -7.0360302e-06 1.3829344e-38
1.2501683 -1.8495265 -7.017255e-06 1.3829344e-38
1.3420492 -1.8547523 -6.9676912e-06 1.3829344e-38
1.4030232 -1.8977703 -6.0796738e-06 1.3829344e-38
-1.3037165 -1.7910757 -3.1590462e-06 1.3829344e-38
-1.2434262 -1.752369 -3.5468938e-06 1.3829344e-38
-1.149794 -1.7484382 -3.774097e-06 1.3829344e-38
-1.0500606 -1.7483251 -4.3110676e-06 1.3829344e-38
-0.94972569 -1.7483866 -4.1233898e-06 1.3829344e-38
-0.84974635 -1.748475 -3.9096017e-06 1.3829344e-38
-0.75013351 -1.748315 -3.9384913e-06 1.3829344e-38
-0.6499182 -1.7483964 -3.9596353e-06 1.3829344e-38
-0.57929432 -1.7487012 -4.2887295e-06 1.3829344e-38
0.5793848 -1.7485694 -6.8060835e-06 1.3829344e-38
0.65000665 -1.7484317 -6.7992278e-06 1.3829344e-38
0.75010276 -1.7483882 -6.7072419e-06 1.3829344e-38
0.85007823 -1.7484431 -6.7937804e-06 1.3829344e-38
0.95005333 -1.7483433 -6.7270148e-06 1.3829344e-38
1.0500294 -1.7484026 -6.6062053e-06 1.3829344e-38
1.1500058 -1.7484589 -6.6367479e-06 1.3829344e-38
1.2501006 -1.7483456 -6.6100979e-06 1.3829344e-38
1.3188056 -1.7613169 -6.4736232e-06 1.3829344e-38
-1.2213472 -1.6610428 -3.5479918e-06 1.3829344e-38
-1.1501915 -1.6490896 -3.6673941e-06 1.3829344e-38
-1.0498966 -1.6493775 -3.7986547e-06 1.3829344e-38
-0.94969481 -1.6492616 -3.0328317e-06 1.3829344e-38
-0.84992456 -1.6491673 -3.5645573e-06 1.3829344e-38
-0.75011742 -1.6492929 -3.8213611e-06 1.3829344e-38
-0.64981157 -1.6492529 -4.3013461e-06 1.3829344e-38
-0.57910806 -1.6493247 -4.5360043e-06 1.3829344e-38
0.57932615 -1.6491156 -6.6065786e-06 1.3829344e-38
0.65002531 -1.6493404 -6.5054214e-06 1.3829344e-38
0.75002116 -1.6493074 -6.5653962e-06 1.3829344e-38
0.850016 -1.6492863 -6.5429363e-06 1.3829344e-38
0.95001268 -1.6493932 -6.6470902e-06 1.3829344e-38
1.050007 -1.6492862 -6.6584435e-06 1.3829344e-38
1.1500032 -1.6493028 -6.7608698e-06 1.3829344e-38
1.2413902 -1.6543683 -6.766049e-06 1.3829344e-38
1.30196 -1.6951401 -6.377697e-06 1.3829344e-38
-1.203796 -1.5924217 -3.7636075e-06 1.3829344e-38
-1.1432467 -1.5533378 -3.6853764e-06 1.3829344e-38
-1.0499233 -1.5483124 -3.1289724e-06 1.3829344e-38
-0.94935566 -1.548658 -3.2596972e-06 1.3829344e-38
-0.84925717 -1.5478088 -3.6267468e-06 1.3829344e-38
-0.74998158 -1.5478165 -3.5357562e-06 1.3829344e-38
-0.65039933 -1.5478946 -3.3010804e-06 1.3829344e-38
-0.56672657 -1.537938 -3.7104371e-06 1.3829344e-38
-0.44980517 -1.509445 -3.9612805e-06 1.3829344e-38
-0.34994975 -1.5094123 -3.2791452e-06 1.3829344e-38
-0.2504707 -1.5093752 -4.9204968e-06 1.3829344e-38
-0.15061325 -1.5094453 -3.7343414e-06 1.3829344e-38
-0.050386205 -1.509446 -4.0248588e-06 1.3829344e-38
0.049840856 -1.509447 -5.0482927e-06 1.3829344e-38
0.15006788 -1.509446 -3.7149148e-06 1.3829344e-38
0.25029513 -1.5094489 -5.1207012e-06 1.3829344e-38
0.35015109 -1.5093797 -6.6330185e-06 1.3829344e-38
0.45000431 -1.5094507 -6.6545276e-06 1.3829344e-38
0.5665732 -1.5379516 -6.289838e-06 1.3829344e-38
0.64998859 -1.5477519 -6.3213029e-06 1.3829344e-38
0.74996746 -1.5477651 -6.3553989e-06 1.3829344e-38
0.8499459 -1.5476673 -6.3153102e-06 1.3829344e-38
0.95001525 -1.5478765 -6.5027916e-06 1.3829344e-38
1.049993 -1.5476941 -6.3727657e-06 1.3829344e-38
1.1499722 -1.5477334 -6.3786601e-06 1.3829344e-38
1.2184402 -1.56301 -6.1740175e-06 1.3829344e-38
-1.1202962 -1.4592693 -3.5374928e-06 1.3829344e-38
-1.0500131 -1.4476765 -3.3672191e-06 1.3829344e-38
-0.95022947 -1.4473184 -3.2093437e-06 1.3829344e-38
-0.84958839 -1.4477947 -3.801606e-06 1.3829344e-38
-0.7499941 -1.4474796 -3.3263111e-06 1.3829344e-38
-0.65078521 -1.4481213 -3.6384047e-06 1.3829344e-38
-0.5500102 -1.4490958 -3.8860594e-06 1.3829344e-38
-0.44945419 -1.4478574 -3.6615133e-06 1.3829344e-38
-0.3499929 -1.4475631 -4.0018303e-06 1.3829344e-38
-0.25008145 -1.4483078 -3.9246593e-06 1.3829344e-38
-0.14982903 -1.4474052 -3.9989832e-06 1.3829344e-38
-0.049709234 -1.4474274 -4.4199437e-06 1.3829344e-38
0.050178051 -1.447383 -4.0994641e-06 1.3829344e-38
0.14996703 -1.4476258 -4.3181994e-06 1.3829344e-38
0.24992749 -1.4474169 -4.6546434e-06 1.3829344e-38
0.34996852 -1.4474323 -5.3258559e-06 1.3829344e-38
0.4500095 -1.4476107 -6.6565372e-06 1.3829344e-38
0.55005145 -1.4474422 -6.7917977e-06 1.3829344e-38
0.6500119 -1.4474434 -6.7441479e-06 1.3829344e-38
0.74997056 -1.4474691 -6.6502735e-06 1.3829344e-38
0.85001248 -1.4473734 -6.5892004e-06 1.3829344e-38
0.95005381 -1.4475456 -6.5210811e-06 1.3829344e-38
1.0499314 -1.4474673 -6.6831831e-06 1.3829344e-38
1.140309 -1.4525425 -6.8505437e-06 1.3829344e-38
1.2009008 -1.4953719 -6.7949295e-06 1.3829344e-38
-1.10259 -1.3897586 -2.6226044e-06 1.3829344e-38
-1.0439451 -1.3580035 -3.1150844e-06 1.3829344e-38
-0.94980842 -1.3568442 -2.8891843e-06 1.3829344e-38
-0.85014874 -1.3554293 -3.3252513e-06 1.3829344e-38
-0.7486999 -1.3542317 -3.4929603e-06 1.3829344e-38
-0.65072572 -1.3562901 -3.5678563e-06 1.3829344e-38
-0.5491761 -1.3564028 -3.5710195e-06 1.3829344e-38
-0.44970891 -1.3550274 -3.4411748e-06 1.3829344e-38
-0.35112578 -1.3559664 -3.4656721e-06 1.3829344e-38
-0.24955501 -1.3554996 -3.2111009e-06 1.3829344e-38
-0.15089196 -1.3552907 -3.2986009e-06 1.3829344e-38
-0.049069364 -1.356161 -3.2743355e-06 1.3829344e-38
0.050412565 -1.3549794 -3.5132623e-06 1.3829344e-38
0.14990485 -1.3554715 -3.7234677e-06 1.3829344e-38
0.25041547 -1.3552165 -4.1168555e-06 1.3829344e-38
0.34967303 -1.3555534 -4.2033712e-06 1.3829344e-38
0.45021033 -1.3554344 -5.3959966e-06 1.3829344e-38
0.55004561 -1.3552195 -6.4784831e-06 1.3829344e-38
0.65003902 -1.3553051 -6.4758578e-06 1.3829344e-38
0.75003421 -1.3552197 -6.3758253e-06 1.3829344e-38
0.85002744 -1.3552233 -6.4054339e-06 1.3829344e-38
0.95002222 -1.3553267 -6.3070579e-06 1.3829344e-38
1.0500979 -1.3552783 -6.2766539e-06 1.3829344e-38
1.1185025 -1.3652753 -6.1938899e-06 1.3829344e-38
-0.52950001 -2.0389123 0.0025467942 8.3048374e-39
-0.45136693 -2.0382247 0.00689669 7.9356919e-39
-0.35031775 -2.0390296 0.0079355752 7.9353318e-39
-0.25010461 -2.0388916 0.0079614287 7.9353318e-39
-0.150152 -2.0387988 0.0079780994 7.9356919e-39
-0.075445034 -2.0387437 0.0079876091 7.9356919e-39
0.071983479 -2.0391345 0.007909108 8.0278876e-39
0.14973074 -2.0388083 0.0079716882 8.0278876e-39
0.25018761 -2.0388517 0.0079619605 8.027889e-39
0.34989372 -2.0389948 0.0079320241 8.1200832e-39
0.45090002 -2.0384641 0.0068734535 8.3970316e-39
0.5292654 -2.0386839 0.0025641494 8.6743416e-39
-1.1304061 -1.906327 3.5762787e-07 1.3829344e-38
-0.98103452 -1.919279 8.3446503e-07 1.3829344e-38
-0.82805461 -1.9323554 1.0927518e-07 1.3829344e-38
-0.52926213 -1.9489872 0.0029044789 8.304836e-39
-0.44982344 -1.9492582 0.010707079 7.658382e-39
-0.35085705 -1.9461229 0.019860471 6.8275381e-39
-0.25122759 -1.9455506 0.025238633 6.4580311e-39
-0.15001206 -1.9484123 0.025734842 6.4576724e-39
-0.074081749 -1.9481823 0.025778705 6.4580311e-39
0.072239123 -1.9484818 0.025717352 6.4580325e-39
0.15016219 -1.9484444 0.025723526 6.5502281e-39
0.25123879 -1.9457306 0.025217691 7.1041264e-39
0.35099834 -1.9460915 0.01985262 7.8427746e-39
0.44981986 -1.9494598 0.010699629 8.3048374e-39
0.52920854 -1.9489555 0.0029017986 8.6739814e-39
-1.3180919 -1.8433496 5.9604645e-07 1.3829344e-38
-1.2990083 -1.8433496 5.9604645e-07 1.3829344e-38
-1.149439 -1.8311002 3.5762787e-07 1.3829344e-38
-0.52967137 -1.8486754 0.0028632195 8.304836e-39
-0.45001999 -1.8492082 0.010686622 7.658382e-39
-0.3498401 -1.8490778 0.020526318 6.8271766e-39
-0.24986234 -1.8490648 0.030346185 5.9963299e-39
-0.15085509 -1.8474691 0.039397426 5.2573215e-39
-0.072677061 -1.8466483 0.044159137 4.7959804e-39
0.071873732 -1.8462421 0.044193901 6.0885269e-39
0.15111418 -1.8477525 0.039335888 6.827178e-39
0.2502445 -1.8491682 0.030304441 7.3814349e-39
0.35014948 -1.8491755 0.020491321 7.8431362e-39
0.45029065 -1.8493439 0.010655082 8.304836e-39
0.52962059 -1.8489896 0.0028630455 8.6739814e-39
-0.52965367 -1.7485244 0.0028638062 8.2126404e-39
-0.45012972 -1.7490585 0.010674676 7.5661877e-39
-0.34979877 -1.7490505 0.020529239 6.7353411e-39
-0.24975014 -1.7489867 0.030356014 5.9041357e-39
-0.14914678 -1.7459266 0.039147656 5.0725687e-39
-0.04609333 -1.7491809 0.048373967 4.5186719e-39
0.047226239 -1.7486317 0.048018266 5.4420743e-39
0.14878468 -1.7459265 0.039185654 6.6427839e-39
0.24953733 -1.749086 0.030375555 7.3814349e-39
0.34976605 -1.7489966 0.020530697 7.8431348e-39
0.44988939 -1.7490216 0.010696241 8.304836e-39
0.52957731 -1.7490371 0.0028690568 8.6739814e-39
-1.1428467 -1.6546079 7.7027539e-07 1.3829344e-38
-0.82019782 -1.6978793 0 1.3829344e-38
-0.52923733 -1.6489409 0.0029035327 8.2126404e-39
-0.44988558 -1.648953 0.010697515 7.5661863e-39
-0.34913701 -1.6473491 0.019617636 6.7353397e-39
-0.24937584 -1.6477281 0.024281269 6.2732783e-39
-0.15004756 -1.6481856 0.025062453 6.180724e-39
-0.050788585 -1.6481758 0.025061887 6.1810827e-39
0.049374044 -1.6485245 0.02512848 6.1810827e-39
0.15005969 -1.6480383 0.025034601 6.2732797e-39
0.24927464 -1.6477194 0.024278995 6.827178e-39
0.34909341 -1.6473852 0.01961891 7.658382e-39
0.45005688 -1.6488264 0.010681552 8.2126404e-39
0.52928257 -1.648984 0.0028997406 8.5821445e-39
-1.1380736 -1.5284343 9.0599059e-07 1.3829344e-38
-1.0494949 -1.5142329 1.1324883e-06 1.3829344e-38
-0.96289909 -1.5099238 1.0362038e-06 1.3829344e-38
-0.88914734 -1.5428959 3.5762787e-07 1.3829344e-38
-0.62035131 -1.523652 1.4305115e-06 1.3829344e-38
-0.52888405 -1.5588928 0.002530223 8.2126404e-39
-0.44894531 -1.5586944 0.006616673 7.8431362e-39
-0.34998906 -1.5600647 0.0077509857 7.7509391e-39
-0.24986838 -1.5600677 0.0077529512 7.7509391e-39
-0.14984702 -1.5602018 0.0077786739 7.842776e-39
-0.050331324 -1.5600677 0.0077531803 7.8431348e-39
0.049802542 -1.5599947 0.0077392748 7.8431362e-39
0.15021266 -1.5603057 0.0077996836 7.8431362e-39
0.25003356 -1.5602081 0.007781561 7.9353304e-39
0.34995463 -1.5600524 0.0077510648 7.9353318e-39
0.44884077 -1.5586445 0.0066142636 8.2126404e-39
0.52891481 -1.5587459 0.0025266842 8.5817858e-39
-1.0657716 -1.4101006 8.3446503e-07 1.3829344e-38
-0.92588365 -1.4586869 1.0728836e-06 1.3829344e-38
-0.8738637 -1.4057847 1.4066696e-06 1.3829344e-38
-0.62545478 -1.4226016 6.1094761e-07 1.3829344e-38
-0.55142844 -1.4144324 1.013279e-06 1.3829344e-38
-0.48731834 -1.4144317 1.1622906e-06 1.3829344e-38
-0.24512489 -1.4144312 1.8030405e-06 1.3829344e-38
-1.1037036 -1.397205 3.9736429e-07 1.3829344e-38
-1.0440098 -1.3606453 1.0700111e-06 1.3829344e-38
-0.94947261 -1.3349471 2.9260462e-07 1.3829344e-38
-0.84754723 -1.3541125 9.7212342e-07 1.3829344e-38
-0.76492661 -1.3682946 1.0931745e-06 1.3829344e-38
-0.64219999 -1.3444247 6.7331172e-07 1.3829344e-38
-0.55706704 -1.3444926 8.3446503e-07 1.3829344e-38
-0.49225339 -1.3972037 2.0265579e-06 1.3829344e-38
-0.32439116 -1.3381704 1.296401e-06 1.3829344e-38
-0.29360321 -1.3278892 9.9341071e-07 1.3829344e-38
-0.12884408 -1.3539244 5.0663948e-07 1.3829344e-38
-0.063733399 -1.330855 4.2265111e-07 1.3829344e-38
0.074713103 -1.3844569 0 1.3829344e-38
0.19861072 -1.3308547 1.0728836e-06 1.3829344e-38
0.23615545 -1.3571931 7.3909757e-07 1.3829344e-38
0.38825855 -1.3268391 3.5762787e-07 1.3829344e-38
0.40195042 -1.3268391 3.5762787e-07 1.3829344e-38
-0.020864587 -1.7792156 0.14854272 4.4264748e-39
0.021157436 -1.7792157 0.15089542 5.8115785e-39
-0.021147976 -1.7792162 0.25053856 4.4264734e-39
0.02003872 -1.7792152 0.25053847 5.7197416e-39
-0.021511329 -1.779215 0.35045466 4.3342792e-39
0.0200815 -1.7792147 0.34941968 5.7193829e-39
-0.021431116 -1.7792202 0.41923878 4.4261147e-39
0.020111693 -1.7792202 0.41923881 5.7193829e-39
-0.90688497 -2.2287011 0.77470022 7.7397147e-39
-0.84965587 -2.2298207 0.77470124 7.7397133e-39
-0.75011134 -2.2299144 0.77470136 7.8315474e-39
-0.64972538 -2.2299147 0.77470142 7.9237417e-39
-0.54976141 -2.2297201 0.77470148 7.9237403e-39
-0.44979662 -2.2299147 0.77470148 7.9237389e-39
-0.34983119 -2.2298162 0.77470148 7.8315418e-39
-0.25028768 -2.2297189 0.77470148 7.9233787e-39
-0.15618283 -2.229697 0.77470118 7.9237403e-39
0.16713496 -2.2297659 0.774701 7.9237403e-39
0.24994902 -2.2299111 0.77470189 7.9241018e-39
0.34991696 -2.2299089 0.77470195 7.7397147e-39
0.44623145 -2.2305372 0.77470183 7.8315474e-39
0.50088304 -2.2529526 0.77470189 7.9241018e-39
0.66454697 -2.2311275 0.77470273 7.9237417e-39
0.75018698 -2.2297149 0.77470332 8.0155744e-39
0.85014766 -2.2299075 0.77470332 7.8315432e-39
0.90709919 -2.2313488 0.77470225 7.9233773e-39
-0.90755641 -2.1521921 0.77470011 7.7400721e-39
-0.8498252 -2.1517019 0.77469981 7.7400721e-39
-0.75015277 -2.1518996 0.77470052 7.8311845e-39
-0.65025085 -2.1519451 0.7747013 7.8315446e-39
-0.55034804 -2.1519518 0.77470249 7.9233815e-39
-0.45022225 -2.1517987 0.77470261 7.9237403e-39
-0.35009527 -2.151948 0.77470255 7.9237403e-39
-0.24996665 -2.1518483 0.77470261 8.0155744e-39
-0.15389559 -2.1514478 0.77470249 7.9237389e-39
0.16565122 -2.1512594 0.77470213 7.9241032e-39
0.24976709 -2.1519439 0.77470273 7.8322691e-39
0.35011861 -2.1519461 0.77470279 7.7400721e-39
0.43693143 -2.1539998 0.77470243 7.7397105e-39
0.69086647 -2.1958404 0.77470195 8.0155758e-39
0.76504409 -2.1656668 0.77470237 7.9233815e-39
0.84962857 -2.1520455 0.77470326 7.9237403e-39
0.90732944 -2.1499462 0.77470213 7.9237389e-39
-0.90736109 -2.0560551 0.77469975 7.8315474e-39
-0.85050064 -2.0530529 0.77470028 7.7397119e-39
-0.75000644 -2.0531878 0.77470022 7.8315432e-39
-0.64989519 -2.0533214 0.77470028 7.8315432e-39
-0.54978347 -2.0532222 0.77470058 7.831546e-39
-0.44986856 -2.0531061 0.77470082 7.9233773e-39
-0.3499527 -2.0532246 0.77470219 7.9230172e-39
-0.25003558 -2.0531428 0.77470225 7.8311803e-39
-0.15068252 -2.0527978 0.77470273 7.9233759e-39
-0.09922526 -2.0187576 0.77470034 8.015573e-39
0.16367513 -2.0528886 0.77470231 7.8315446e-39
0.25012809 -2.0530484 0.77470279 7.8315474e-39
0.35004342 -2.0531209 0.77470279 7.7397119e-39
0.42299503 -2.0578496 0.77470142 7.8315474e-39
0.79579246 -2.0793645 0.77470177 8.0152114e-39
0.85020703 -2.0532959 0.77470303 7.9233759e-39
0.90696722 -2.049964 0.77470201 7.8308216e-39
-0.9064284 -1.9529651 0.77469879 7.7393476e-39
-0.86196417 -1.9731812 0.77469826 7.739349e-39
-0.74942285 -1.9948961 0.77469981 7.9237389e-39
-0.6374445 -1.9698051 0.7746982 7.9233773e-39
-0.55010313 -1.9527752 0.7747007 7.9237403e-39
-0.45004383 -1.9524933 0.7747007 8.01521e-39
-0.34998649 -1.952715 0.7747007 7.9230172e-39
-0.24992689 -1.9525273 0.7747007 7.8311817e-39
-0.14987065 -1.9526781 0.77470076 8.0152114e-39
-0.096847355 -1.9448426 0.77470011 8.0148499e-39
0.1601367 -1.9518954 0.77470261 7.8311803e-39
0.2500236 -1.9524306 0.77470291 7.831546e-39
0.3500821 -1.9525222 0.77470297 7.7393504e-39
0.41216531 -1.9599675 0.77470034 7.9237417e-39
0.78916752 -1.9344065 0.77470154 8.1070441e-39
0.85003304 -1.9527071 0.77470315 7.9230158e-39
0.90721548 -1.9527571 0.77470171 7.8315432e-39
-0.90867102 -1.8932718 0.77469873 7.7393476e-39
-0.60358143 -1.8987267 0.77469921 8.1988782e-39
-0.54340887 -1.8547982 0.77470046 8.0155715e-39
-0.44997922 -1.8514069 0.77470082 8.0152114e-39
-0.34993899 -1.851488 0.77470094 8.0152114e-39
-0.25416225 -1.8619931 0.77470022 7.9233787e-39
-0.14557572 -1.857566 0.77470064 8.0152128e-39
-0.093950093 -1.8451937 0.77469987 8.0152114e-39
0.15728338 -1.8510514 0.77470064 7.9233787e-39
0.26655224 -1.8573313 0.77470076 7.8315446e-39
0.34989336 -1.8515896 0.77470279 7.7397105e-39
0.40609053 -1.8689388 0.77614868 8.6616696e-39
0.77155036 -1.8448039 0.77470231 8.0152114e-39
0.85008752 -1.8516893 0.77470297 8.0152114e-39
0.9071328 -1.851818 0.7747013 7.9230172e-39
-0.90721709 -1.7312261 0.77469826 7.7400749e-39
-0.89241362 -1.7148933 0.7746982 7.832632e-39
-0.71873558 -1.7511011 0.79880148 5.5317378e-40
-0.52897614 -1.7526736 0.77571571 8.015573e-39
-0.45002201 -1.750792 0.77469933 8.1074056e-39
-0.35538283 -1.7525041 0.7747007 7.9230144e-39
-0.26501942 -1.7654228 0.78308624 1.2073634e-38
-0.11265659 -1.7599733 0.77548409 8.2921598e-39
-0.09031558 -1.7491432 0.77469975 7.9233773e-39
0.15554315 -1.7504367 0.77470082 8.0155744e-39
0.27031174 -1.7505696 0.77469951 7.7397133e-39
0.34358314 -1.7530249 0.7747016 7.7400749e-39
0.49931028 -1.708937 0.78431809 1.0323373e-38
0.54276162 -1.7166685 0.77831012 8.7542296e-39
0.65687543 -1.7253997 0.77850217 9.6758202e-39
0.75041503 -1.7500952 0.77503729 8.1996027e-39
0.84988111 -1.7509536 0.77470118 8.0148499e-39
0.9071762 -1.7512343 0.77470052 7.9230158e-39
-0.90718043 -1.6464051 0.77469748 7.7400763e-39
-0.87024289 -1.6376284 0.77506334 7.555685e-39
-0.54068351 -1.6419953 0.77946359 7.0036e-39
-0.44989142 -1.6482841 0.77469742 8.015573e-39
-0.35086486 -1.6474075 0.77469766 7.9233787e-39
-0.24331167 -1.640759 0.79047358 1.9636579e-38
-0.15214683 -1.6437457 0.78770941 1.696182e-38
-0.087868288 -1.6466291 0.77469856 7.8315432e-39
0.15334347 -1.6478988 0.77469826 7.9237403e-39
0.26445225 -1.6463218 0.7747007 7.9237431e-39
0.33462799 -1.6486906 0.7754066 7.5560465e-39
0.48882782 -1.6354969 0.77469975 7.8319076e-39
0.55167818 -1.6520683 0.7763561 8.5694726e-39
0.64953846 -1.648837 0.77492261 7.9241018e-39
0.75006032 -1.6483424 0.77469903 8.0155744e-39
0.85020036 -1.6482997 0.77469897 7.9233787e-39
0.90739042 -1.6492871 0.77470034 7.8311831e-39
-0.90752798 -1.5502466 0.77469701 7.831909e-39
-0.84898025 -1.5497411 0.77521574 7.6475191e-39
-0.75148946 -1.5395527 0.77971238 5.8054184e-39
-0.64629757 -1.5429695 0.78095073 5.6217502e-39
-0.55392283 -1.5529002 0.77609044 7.5553235e-39
-0.45005172 -1.5487628 0.77469671 7.9237403e-39
-0.34999132 -1.5487556 0.77469665 7.9237403e-39
-0.24917039 -1.5495807 0.77532542 8.476914e-39
-0.15079625 -1.5493993 0.77525556 8.2925242e-39
-0.075552218 -1.5399178 0.77505612 7.7397105e-39
0.085458919 -1.5219719 0.77505869 7.8319062e-39
0.14467676 -1.5553364 0.77469897 7.8319062e-39
0.26271108 -1.5646704 0.77469927 7.9237431e-39
0.353203 -1.5514866 0.77713913 7.0032399e-39
0.44851202 -1.5480114 0.77785105 7.3716623e-39
0.5498215 -1.548647 0.77469712 7.8315446e-39
0.64998668 -1.5486614 0.77469724 7.9237403e-39
0.74994153 -1.5488669 0.77469796 7.9233801e-39
0.84979451 -1.5486432 0.77469832 7.9237403e-39
0.90701371 -1.5496809 0.77470022 7.9237403e-39
-0.90621084 -1.4593391 0.77469665 7.7397119e-39
-0.84972644 -1.4499142 0.77469498 7.7397119e-39
-0.75000137 -1.4497514 0.77469498 7.8315446e-39
-0.65011245 -1.4498266 0.77469504 7.8315432e-39
-0.55006158 -1.449764 0.77469504 7.831546e-39
-0.45000991 -1.4497392 0.77469504 7.9233773e-39
-0.34987727 -1.4497582 0.77469498 7.9233759e-39
-0.24990664 -1.4497219 0.77469504 7.8311803e-39
-0.14993741 -1.449742 0.77469522 7.9230172e-39
-0.048854653 -1.4510245 0.77569264 7.4642054e-39
0.049872927 -1.4500932 0.77639526 7.0965047e-39
0.14847928 -1.4465089 0.77469581 7.8315446e-39
0.25202292 -1.444772 0.77469605 7.8315474e-39
0.34990913 -1.4497259 0.77469534 7.7397119e-39
0.44971392 -1.4497987 0.7746954 7.8315446e-39
0.54976648 -1.4497789 0.7746954 7.8315432e-39
0.64998072 -1.4497547 0.7746954 7.831546e-39
0.75003159 -1.4497864 0.7746954 7.9233787e-39
0.85016418 -1.4497037 0.77469563 8.0152114e-39
0.90739781 -1.4499787 0.77469999 7.8311803e-39
-0.8387692 -1.3583689 0.765706 5.1596874e-39
-0.75011921 -1.3566558 0.76535892 5.1593273e-39
-0.65004611 -1.3567042 0.76537663 5.2515229e-39
-0.54997331 -1.3566647 0.76537728 5.2518845e-39
-0.44996381 -1.356621 0.76536083 5.4355513e-39
-0.34995481 -1.3566979 0.76539874 5.4355527e-39
-0.25000912 -1.3566082 0.76531577 5.5277483e-39
-0.15019168 -1.3566905 0.76539874 5.6199411e-39
-0.050377604 -1.35662 0.76536375 5.7121368e-39
0.049828202 -1.3566399 0.76535207 5.7121396e-39
0.15015578 -1.3566896 0.76539057 5.8043338e-39
0.25009921 -1.3566869 0.76540077 5.8046967e-39
0.3501083 -1.3566298 0.76533473 5.8965308e-39
0.45005363 -1.3566552 0.76536989 5.988725e-39
0.54999876 -1.3566724 0.7653845 6.0809207e-39
0.65007162 -1.3566782 0.76537281 6.1731177e-39
0.75001591 -1.3566374 0.76535624 6.2649504e-39
0.85008866 -1.3566171 0.76535165 6.2653077e-39
0.90703267 -1.3571829 0.76520574 6.357146e-39
0.59065384 -2.0072384 0.84899688 2.3509886e-38
0.61181033 -2.0087039 0.84841949 2.3509886e-38
0.41871044 -1.9146633 0.84490955 1.9545474e-38
0.58341777 -1.9502574 0.82950246 1.9637669e-38
0.63946193 -1.9436027 0.8485589 2.1481583e-38
0.70932555 -1.9207395 0.8488223 2.3509886e-38
-0.80707037 -1.8063091 0.83290446 1.3092137e-38
-0.74413395 -1.8229892 0.83290344 1.2262376e-38
-0.6565569 -1.8232259 0.83289957 1.2262376e-38
-0.59450603 -1.8074559 0.83289593 1.3091778e-38
0.40828305 -1.8657703 0.82775301 1.7240583e-38
0.57625544 -1.8482291 0.83907598 1.991426e-38
0.64935261 -1.8478472 0.85265386 1.8900108e-38
0.71479326 -1.8477365 0.84925824 2.3509886e-38
-0.8236286 -1.7407537 0.83290446 1.217018e-38
-0.74514371 -1.7455304 0.82909554 4.2409976e-39
-0.64841235 -1.7526641 0.83352488 7.375649e-39
-0.57308036 -1.7387881 0.83111578 1.1616648e-38
-0.22394468 -1.7093382 0.81701607 2.0375234e-38
-0.17674685 -1.7098851 0.81690985 1.6963996e-38
0.19195817 -1.713462 0.8427698 4.0526084e-39
0.21659958 -1.7123661 0.84628004 1.0407926e-38
0.49948278 -1.7121257 0.82906431 1.6226432e-38
0.54493642 -1.7287568 0.8420853 2.0467431e-38
0.64730096 -1.7393116 0.8387509 2.1020604e-38
0.70913243 -1.7758375 0.83401918 2.1481582e-38
-0.82286114 -1.6513122 0.83188373 1.1801398e-38
-0.75345737 -1.6410576 0.83587176 8.7589422e-39
-0.6466859 -1.6435856 0.83632499 7.9288228e-39
-0.56743848 -1.6469393 0.82397407 9.4965086e-39
-0.26654896 -1.6657757 0.81335568 2.3141103e-38
-0.13366492 -1.6706271 0.81361258 1.4290323e-38
0.19413918 -1.6501182 0.84193748 4.1448026e-39
0.21390575 -1.6503186 0.84593499 1.1052569e-38
0.36052471 -1.609472 0.85131472 4.6955087e-39
0.56825686 -1.6962982 0.82391226 1.6779605e-38
0.60543406 -1.698691 0.8217665 1.6779605e-38
-0.80864078 -1.5918996 0.82174897 6.7306397e-39
-0.74442118 -1.5651882 0.82423818 7.6529561e-39
-0.65129459 -1.5645009 0.82280362 7.3763707e-39
-0.59083658 -1.5909685 0.81848216 7.0072266e-39
-0.23994213 -1.5507259 0.8187871 1.2077628e-38
-0.15589181 -1.5517131 0.81797963 1.1524454e-38
-0.060686026 -1.5129851 0.84907669 1.1779175e-40
0.091911025 -1.5137409 0.85167819 7.7325751e-40
0.19395554 -1.5528666 0.8391127 3.040267e-39
0.21276557 -1.5496552 0.84346962 1.0223896e-38
0.38016459 -1.5764481 0.85070336 4.3263661e-39
0.4293009 -1.5676613 0.85083795 6.5401374e-39
-0.026819039 -1.4766192 0.85083663 5.7732796e-40
0.041264474 -1.471949 0.8510105 2.4201588e-39
0.17505263 -1.4127779 0.84077752 3.7821886e-39
0.22946453 -1.4305325 0.83999604 5.5306392e-39
0.16789134 -1.3981075 0.8351177 8.301222e-40
0.21485496 -1.3991683 0.83481431 0
0.36053184 -1.6093949 0.95196944 6.6355602e-39
0.46723497 -1.6022307 0.92369223 1.3457314e-38
-0.061121643 -1.5127503 0.94932103 1.1779175e-40
0.091494769 -1.5144033 0.95022637 8.6545174e-40
0.38014325 -1.5764719 0.95066077 7.4645894e-39
0.42914823 -1.5676079 0.95105231 9.4010578e-39
-0.027030595 -1.4769462 0.95129722 8.5319318e-40
0.041366082 -1.472664 0.95074594 1.8684283e-39
-0.010202643 -1.6079344 1.0874618 9.695458e-40
0.019075487 -1.6076955 1.0875435 1.0617414e-39
0.38146809 -1.6277635 1.004941 1.6494007e-38
0.43119809 -1.6315405 1.0050014 1.4281332e-38
-0.039718129 -1.5326098 1.0689119 5.8994665e-40
0.055534594 -1.5358349 1.0738338 9.6702066e-40
0.3834475 -1.5815403 1.003996 1.2626837e-38
0.42830259 -1.5790322 1.0044564 1.6680545e-38
-0.023613943 -1.480953 1.0437529 3.0398648e-40
0.037850514 -1.4777834 1.0450832 7.700107e-40
