# .PCD v0.7 - Point Cloud Data file format
VERSION 0.7
FIELDS x y z rgb
SIZE 4 4 4 4
TYPE F F F F
COUNT 1 1 1 1
WIDTH 949
HEIGHT 1
VIEWPOINT 0 0 0 1 0 0 0
POINTS 949
DATA ascii
-1.5052885 -2.1899722 -3.3080578e-06 1.3829344e-38
-1.4737171 -2.1762621 -4.1706462e-06 1.3829344e-38
-1.4249485 -2.175276 -3.6855538e-06 1.3829344e-38
-1.3752328 -2.1751761 -4.0869454e-06 1.3829344e-38
-1.3251913 -2.1755991 -4.0955738e-06 1.3829344e-38
-1.2751429 -2.1751776 -4.4429626e-06 1.3829344e-38
-1.2247573 -2.1752832 -4.1997109e-06 1.3829344e-38
-1.1750526 -2.1752787 -4.068017e-06 1.3829344e-38
-1.1253369 -2.1751778 -4.934298e-06 1.3829344e-38
-1.0749565 -2.1754918 -4.5041779e-06 1.3829344e-38
-1.0249068 -2.175282 -5.0394501e-06 1.3829344e-38
-0.97485608 -2.1754928 -4.939131e-06 1.3829344e-38
-0.92448175 -2.1750722 -4.9278542e-06 1.3829344e-38
-0.87441611 -2.1750693 -4.9039108e-06 1.3829344e-38
-0.82472289 -2.1754935 -4.7553076e-06 1.3829344e-38
-0.77501315 -2.1751752 -5.0345511e-06 1.3829344e-38
-0.7249617 -2.1755979 -4.755484e-06 1.3829344e-38
-0.67492288 -2.1751752 -4.9561672e-06 1.3829344e-38
-0.62485754 -2.1755962 -4.9826263e-06 1.3829344e-38
-0.57483244 -2.1751745 -4.9610662e-06 1.3829344e-38
-0.52511322 -2.1749618 -4.6540613e-06 1.3829344e-38
-0.4754076 -2.1755996 -4.7471426e-06 1.3829344e-38
-0.42536688 -2.1751788 -5.7107695e-06 1.3829344e-38
-0.37496501 -2.1753888 -6.6596108e-06 1.3829344e-38
-0.32493496 -2.1753905 -7.3223896e-06 1.3829344e-38
-0.27521655 -2.1750691 -7.2799317e-06 1.3829344e-38
-0.2251696 -2.1757081 -7.2765993e-06 1.3829344e-38
-0.17479889 -2.1747596 -7.0671776e-06 1.3829344e-38
-0.12505642 -2.175931 -6.8694353e-06 1.3829344e-38
-0.077443399 -2.1748171 -7.4137661e-06 1.3829344e-38
0.048215985 -2.1753905 -7.1525574e-06 1.3829344e-38
0.074431948 -2.17539 -6.9567136e-06 1.3829344e-38
0.12448062 -2.1753898 -7.2423513e-06 1.3829344e-38
0.17522559 -2.1748517 -7.1641471e-06 1.3829344e-38
0.22490734 -2.1755977 -6.9608559e-06 1.3829344e-38
0.27496073 -2.1751802 -7.0186511e-06 1.3829344e-38
0.32466674 -2.1753876 -7.333821e-06 1.3829344e-38
0.37505186 -2.1752887 -7.4545542e-06 1.3829344e-38
0.42510867 -2.1754968 -7.3264041e-06 1.3829344e-38
0.47514594 -2.1752889 -7.3003771e-06 1.3829344e-38
0.52520001 -2.1750667 -7.2237517e-06 1.3829344e-38
0.57490325 -2.1753895 -7.4280274e-06 1.3829344e-38
0.6249519 -2.1753929 -7.4154709e-06 1.3829344e-38
0.67500049 -2.1753891 -7.2041075e-06 1.3829344e-38
0.72538489 -2.1751823 -7.2991525e-06 1.3829344e-38
0.77509427 -2.1753898 -7.4621703e-06 1.3829344e-38
0.82479882 -2.1750762 -7.1976638e-06 1.3829344e-38
0.8751865 -2.1753905 -7.2153839e-06 1.3829344e-38
0.92523509 -2.1753888 -7.2129787e-06 1.3829344e-38
0.97528374 -2.1753917 -7.2604903e-06 1.3829344e-38
1.0253327 -2.1753898 -7.337087e-06 1.3829344e-38
1.0750381 -2.1750717 -7.1770523e-06 1.3829344e-38
1.1247462 -2.1754963 -6.9663947e-06 1.3829344e-38
1.1747898 -2.1752858 -7.3362039e-06 1.3829344e-38
1.2251787 -2.1751826 -7.3039855e-06 1.3829344e-38
1.2752279 -2.1752827 -7.0366141e-06 1.3829344e-38
1.3249322 -2.1751769 -7.1313284e-06 1.3829344e-38
1.3749824 -2.175601 -7.086509e-06 1.3829344e-38
1.4250231 -2.1751776 -7.5085522e-06 1.3829344e-38
1.4747454 -2.1753922 -7.4971213e-06 1.3829344e-38
1.5227135 -2.1770122 -7.4176646e-06 1.3829344e-38
1.5538298 -2.196187 -8.0267591e-06 1.3829344e-38
-1.4647377 -2.1283884 -4.520019e-06 1.3829344e-38
-1.4249386 -2.1259089 -4.1648746e-06 1.3829344e-38
-1.3753411 -2.1254919 -4.026625e-06 1.3829344e-38
-1.3253348 -2.1256151 -4.1851631e-06 1.3829344e-38
-1.2749344 -2.1254377 -4.2803586e-06 1.3829344e-38
-1.2249382 -2.1256721 -4.2822212e-06 1.3829344e-38
-1.1749302 -2.1259069 -4.4219196e-06 1.3829344e-38
-1.1249368 -2.1254385 -5.2265823e-06 1.3829344e-38
-1.0749286 -2.125674 -5.3513795e-06 1.3829344e-38
-1.0249257 -2.1253223 -5.5599958e-06 1.3829344e-38
-0.97532105 -2.1258526 -4.9765149e-06 1.3829344e-38
-0.92492098 -2.1256731 -4.9218988e-06 1.3829344e-38
-0.87453026 -2.1254954 -5.3530648e-06 1.3829344e-38
-0.82490945 -2.1255586 -5.7760626e-06 1.3829344e-38
-0.77491623 -2.1256728 -5.9138983e-06 1.3829344e-38
-0.72491676 -2.1257932 -5.5599958e-06 1.3829344e-38
-0.67490476 -2.1255574 -5.2079558e-06 1.3829344e-38
-0.62530249 -2.1256132 -5.6387885e-06 1.3829344e-38
-0.5752902 -2.1255009 -5.4506154e-06 1.3829344e-38
-0.52490652 -2.1255565 -5.99958e-06 1.3829344e-38
-0.47490147 -2.1256762 -6.0219318e-06 1.3829344e-38
-0.42489028 -2.1257908 -5.6885183e-06 1.3829344e-38
-0.37490216 -2.1255562 -5.7816505e-06 1.3829344e-38
-0.32489106 -2.1256776 -6.6161156e-06 1.3829344e-38
-0.27489352 -2.1252065 -7.4245036e-06 1.3829344e-38
-0.2248787 -2.1261456 -7.1935356e-06 1.3829344e-38
-0.17527948 -2.1254992 -7.1184977e-06 1.3829344e-38
-0.12528917 -2.125386 -7.1763993e-06 1.3829344e-38
-0.076444387 -2.1256769 -7.277727e-06 1.3829344e-38
0.047783051 -2.1256764 -6.9538751e-06 1.3829344e-38
0.075910017 -2.1256769 -7.1995187e-06 1.3829344e-38
0.12513222 -2.1256769 -7.2419643e-06 1.3829344e-38
0.17435436 -2.1256766 -7.0261231e-06 1.3829344e-38
0.22515188 -2.1252055 -7.1208924e-06 1.3829344e-38
0.27513462 -2.1256785 -7.2605908e-06 1.3829344e-38
0.32514155 -2.1261461 -7.2661787e-06 1.3829344e-38
0.37513849 -2.125205 -6.9644302e-06 1.3829344e-38
0.42514515 -2.1256769 -6.9458038e-06 1.3829344e-38
0.47515416 -2.1255581 -7.044524e-06 1.3829344e-38
0.5247516 -2.1257367 -7.1279587e-06 1.3829344e-38
0.57476944 -2.1257348 -7.1397194e-06 1.3829344e-38
0.62476104 -2.1253774 -6.9311686e-06 1.3829344e-38
0.67477179 -2.1256189 -6.8627869e-06 1.3829344e-38
0.72476572 -2.1257355 -7.1336353e-06 1.3829344e-38
0.77477044 -2.1255026 -7.0975375e-06 1.3829344e-38
0.82517374 -2.1257949 -7.0165843e-06 1.3829344e-38
0.87517047 -2.1256738 -6.8899244e-06 1.3829344e-38
0.92516172 -2.1255598 -6.9048256e-06 1.3829344e-38
0.97478169 -2.1254971 -7.1147133e-06 1.3829344e-38
1.0247912 -2.1255038 -6.8040995e-06 1.3829344e-38
1.0751828 -2.1260281 -6.6626817e-06 1.3829344e-38
1.1251738 -2.1253233 -7.0296228e-06 1.3829344e-38
1.1751834 -2.1256766 -6.9178641e-06 1.3829344e-38
1.2251869 -2.1254408 -6.8191439e-06 1.3829344e-38
1.2751901 -2.125911 -6.698072e-06 1.3829344e-38
1.3247999 -2.1253772 -6.8176359e-06 1.3829344e-38
1.3747985 -2.1257346 -6.8389454e-06 1.3829344e-38
1.4252056 -2.125443 -6.7409128e-06 1.3829344e-38
1.4748019 -2.1258528 -6.6776124e-06 1.3829344e-38
1.5116465 -2.1291778 -6.6510561e-06 1.3829344e-38
-1.4554546 -2.0912695 -4.3809414e-06 1.3829344e-38
-1.4244711 -2.0783107 -4.3846157e-06 1.3829344e-38
-1.3753175 -2.0776165 -4.7809199e-06 1.3829344e-38
-1.3252463 -2.0773263 -4.7150411e-06 1.3829344e-38
-1.2751799 -2.0777121 -4.0844866e-06 1.3829344e-38
-1.2251166 -2.0774229 -4.4703484e-06 1.3829344e-38
-1.1750392 -2.0775189 -4.3840787e-06 1.3829344e-38
-1.1249703 -2.077806 -4.5550496e-06 1.3829344e-38
-1.0749083 -2.0773275 -5.1589391e-06 1.3829344e-38
-1.0251672 -2.0774224 -4.7922135e-06 1.3829344e-38
-0.97509825 -2.077615 -4.4618332e-06 1.3829344e-38
-0.92436892 -2.077616 -4.683222e-06 1.3829344e-38
-0.87495792 -2.0776153 -4.9969922e-06 1.3829344e-38
-0.82554668 -2.0776162 -4.9510559e-06 1.3829344e-38
-0.77514797 -2.0774236 -4.1095832e-06 1.3829344e-38
-0.72507977 -2.077616 -4.6021059e-06 1.3829344e-38
-0.67501289 -2.077327 -4.5315214e-06 1.3829344e-38
-0.62527728 -2.0777128 -4.4965745e-06 1.3829344e-38
-0.5775913 -2.0788813 -4.4573908e-06 1.3829344e-38
-0.52490091 -2.0921795 -4.2282045e-06 1.3829344e-38
-0.47547442 -2.0919499 -4.0270388e-06 1.3829344e-38
-0.425257 -2.09218 -4.4613175e-06 1.3829344e-38
-0.37427452 -2.0921807 -5.1223869e-06 1.3829344e-38
-0.32404122 -2.0924106 -4.9136579e-06 1.3829344e-38
-0.27542287 -2.0919445 -5.8258734e-06 1.3829344e-38
-0.22596148 -2.0921822 -6.5456738e-06 1.3829344e-38
-0.1749787 -2.0921819 -6.339767e-06 1.3829344e-38
-0.12399603 -2.0921826 -6.7299061e-06 1.3829344e-38
-0.075330667 -2.0921824 -6.508827e-06 1.3829344e-38
0.047491368 -2.0921824 -6.6359839e-06 1.3829344e-38
0.075300135 -2.0921824 -6.6215343e-06 1.3829344e-38
0.12628287 -2.0921822 -6.5492859e-06 1.3829344e-38
0.17575608 -2.0919452 -6.5103654e-06 1.3829344e-38
0.22435166 -2.0924115 -6.262213e-06 1.3829344e-38
0.2745963 -2.0921826 -6.6829452e-06 1.3829344e-38
0.32557896 -2.0921822 -6.3975654e-06 1.3829344e-38
0.37580785 -2.0919523 -6.4633787e-06 1.3829344e-38
0.42522305 -2.0921824 -6.3180923e-06 1.3829344e-38
0.4746502 -2.0924115 -6.5341592e-06 1.3829344e-38
0.52487522 -2.0921822 -6.5492859e-06 1.3829344e-38
0.57719678 -2.0785806 -6.486388e-06 1.3829344e-38
0.62480676 -2.077426 -6.6710145e-06 1.3829344e-38
0.67486787 -2.0777142 -7.0113883e-06 1.3829344e-38
0.72494555 -2.0775223 -6.8623767e-06 1.3829344e-38
0.77501333 -2.0773292 -6.8059094e-06 1.3829344e-38
0.82507974 -2.0778091 -6.7855181e-06 1.3829344e-38
0.87481588 -2.0774238 -6.9602329e-06 1.3829344e-38
0.92488819 -2.0776176 -6.8738864e-06 1.3829344e-38
0.97529572 -2.0773289 -6.7933611e-06 1.3829344e-38
1.0250239 -2.0776191 -6.7027408e-06 1.3829344e-38
1.0750941 -2.0776174 -6.7299061e-06 1.3829344e-38
1.1251671 -2.077713 -6.8505606e-06 1.3829344e-38
1.1749068 -2.0776188 -6.7996352e-06 1.3829344e-38
1.2249683 -2.0773287 -6.5078862e-06 1.3829344e-38
1.2750437 -2.0775228 -6.7541473e-06 1.3829344e-38
1.3251115 -2.0778079 -6.7541473e-06 1.3829344e-38
1.3751807 -2.0774264 -6.7353249e-06 1.3829344e-38
1.4249148 -2.0774231 -6.5946579e-06 1.3829344e-38
1.4729578 -2.0790703 -6.6552843e-06 1.3829344e-38
1.5037466 -2.0970821 -6.8346658e-06 1.3829344e-38
-1.4149674 -2.0312307 -4.7114763e-06 1.3829344e-38
-1.3746159 -2.0274632 -4.3404407e-06 1.3829344e-38
-1.3247538 -2.027277 -4.9926734e-06 1.3829344e-38
-1.2752256 -2.027554 -4.4556409e-06 1.3829344e-38
-1.225368 -2.0275536 -4.0871755e-06 1.3829344e-38
-1.1751844 -2.0272844 -4.2548545e-06 1.3829344e-38
-1.1250113 -2.0275548 -4.4602853e-06 1.3829344e-38
-1.0751542 -2.0275557 -4.9216405e-06 1.3829344e-38
-1.0249734 -2.0275526 -4.6491623e-06 1.3829344e-38
-0.97479278 -2.0275543 -4.8736474e-06 1.3829344e-38
-0.92462033 -2.0273728 -4.7775416e-06 1.3829344e-38
-0.87443411 -2.0275533 -4.3085643e-06 1.3829344e-38
-0.82457715 -2.0275538 -4.771468e-06 1.3829344e-38
-0.77472001 -2.0275531 -4.5005377e-06 1.3829344e-38
-0.72486526 -2.0270979 -4.3627506e-06 1.3829344e-38
-0.67501378 -2.0275559 -5.1786374e-06 1.3829344e-38
-0.62515682 -2.0275555 -5.1817337e-06 1.3829344e-38
-0.57950634 -2.0274436 -5.0999224e-06 1.3829344e-38
0.57948393 -2.0275552 -6.2771142e-06 1.3829344e-38
0.62544674 -2.0272877 -6.4953779e-06 1.3829344e-38
0.67531091 -2.0272777 -6.5235713e-06 1.3829344e-38
0.72483712 -2.0275562 -6.4342053e-06 1.3829344e-38
0.77469438 -2.0275557 -6.3645375e-06 1.3829344e-38
0.82487291 -2.0273757 -6.4617548e-06 1.3829344e-38
0.87505299 -2.0275562 -6.6617868e-06 1.3829344e-38
0.92491013 -2.0275569 -6.5147101e-06 1.3829344e-38
0.97476691 -2.0275569 -6.2174613e-06 1.3829344e-38
1.0246242 -2.0275567 -6.188046e-06 1.3829344e-38
1.0748029 -2.027287 -6.4984347e-06 1.3829344e-38
1.1249809 -2.0275557 -6.2902254e-06 1.3829344e-38
1.1751583 -2.0274644 -6.3104508e-06 1.3829344e-38
1.2253414 -2.0275564 -6.3459593e-06 1.3829344e-38
1.2751988 -2.0275564 -6.4821988e-06 1.3829344e-38
1.3250558 -2.0275567 -6.3800194e-06 1.3829344e-38
1.3752323 -2.0273755 -6.0613338e-06 1.3829344e-38
1.425414 -2.0275557 -6.1075407e-06 1.3829344e-38
1.462455 -2.0316906 -6.577548e-06 1.3829344e-38
-1.4053001 -1.991932 -4.6044588e-06 1.3829344e-38
-1.3738856 -1.9767536 -3.6483586e-06 1.3829344e-38
-1.3250777 -1.9757725 -3.6995064e-06 1.3829344e-38
-1.2750136 -1.975849 -3.4636194e-06 1.3829344e-38
-1.224951 -1.9756216 -3.8990815e-06 1.3829344e-38
-1.1751567 -1.9758123 -4.4147173e-06 1.3829344e-38
-1.125091 -1.9755129 -4.4690237e-06 1.3829344e-38
-1.075025 -1.9758141 -4.822678e-06 1.3829344e-38
-1.0249536 -1.975737 -4.5087604e-06 1.3829344e-38
-0.97517127 -1.9755464 -4.031685e-06 1.3829344e-38
-0.92482466 -1.9759607 -4.382237e-06 1.3829344e-38
-0.87475389 -1.9758134 -4.650517e-06 1.3829344e-38
-0.82496667 -1.9754798 -4.9740402e-06 1.3829344e-38
-0.77490038 -1.9760051 -5.0067902e-06 1.3829344e-38
-0.72511077 -1.9755859 -4.1723251e-06 1.3829344e-38
-0.67504346 -1.9756624 -4.2385527e-06 1.3829344e-38
-0.62525779 -1.9756993 -4.5446868e-06 1.3829344e-38
-0.57963365 -1.9759505 -4.7620138e-06 1.3829344e-38
0.57940745 -1.9756303 -6.6724983e-06 1.3829344e-38
0.62503064 -1.975814 -6.9088405e-06 1.3829344e-38
0.67510074 -1.9755148 -6.7273777e-06 1.3829344e-38
0.72516227 -1.9758161 -6.5379672e-06 1.3829344e-38
0.77495402 -1.9758531 -6.5565109e-06 1.3829344e-38
0.82474434 -1.9754391 -6.7830088e-06 1.3829344e-38
0.87508786 -1.9761506 -6.7176402e-06 1.3829344e-38
0.92514884 -1.975625 -6.5578502e-06 1.3829344e-38
0.97495091 -1.9754394 -6.4902833e-06 1.3829344e-38
1.0250039 -1.9760404 -6.7141323e-06 1.3829344e-38
1.07508 -1.975589 -6.6174402e-06 1.3829344e-38
1.1251464 -1.9756658 -6.7962542e-06 1.3829344e-38
1.1749318 -1.9757009 -6.8659192e-06 1.3829344e-38
1.2250023 -1.9759274 -6.9639186e-06 1.3829344e-38
1.2753472 -1.9755141 -6.8214204e-06 1.3829344e-38
1.3251325 -1.9760065 -6.836452e-06 1.3829344e-38
1.3752027 -1.9756287 -6.8145796e-06 1.3829344e-38
1.422869 -1.9776568 -7.0076953e-06 1.3829344e-38
1.4533505 -1.9973577 -7.6293945e-06 1.3829344e-38
-1.3641956 -1.9289092 -3.7010325e-06 1.3829344e-38
-1.3250046 -1.9260324 -4.3049454e-06 1.3829344e-38
-1.2750468 -1.9255421 -3.9294364e-06 1.3829344e-38
-1.225397 -1.9259509 -3.7075597e-06 1.3829344e-38
-1.1751314 -1.9257903 -4.1825015e-06 1.3829344e-38
-1.1244662 -1.925951 -4.0953673e-06 1.3829344e-38
-1.0745888 -1.9259498 -4.5344232e-06 1.3829344e-38
-1.02463 -1.9256246 -4.5970082e-06 1.3829344e-38
-0.97415596 -1.9264034 -4.6588279e-06 1.3829344e-38
-0.92440015 -1.9258692 -3.9927754e-06 1.3829344e-38
-0.87472093 -1.9256175 -3.6633933e-06 1.3829344e-38
-0.82462305 -1.9246444 -3.4276991e-06 1.3829344e-38
-0.77483815 -1.9260321 -3.476441e-06 1.3829344e-38
-0.72487909 -1.925787 -3.9935112e-06 1.3829344e-38
-0.67491829 -1.925704 -3.9935112e-06 1.3829344e-38
-0.62496275 -1.9258697 -4.5061111e-06 1.3829344e-38
-0.57937288 -1.9257691 -4.7665653e-06 1.3829344e-38
0.5793485 -1.9258705 -6.6757202e-06 1.3829344e-38
0.62524879 -1.9258722 -6.3911079e-06 1.3829344e-38
0.67489159 -1.9257882 -6.3075295e-06 1.3829344e-38
0.72485811 -1.9257091 -6.4373016e-06 1.3829344e-38
0.77512246 -1.9260361 -6.4253809e-06 1.3829344e-38
0.82508355 -1.9257084 -6.3180923e-06 1.3829344e-38
0.87472475 -1.9257053 -6.354308e-06 1.3829344e-38
0.92468655 -1.9258721 -6.0767302e-06 1.3829344e-38
0.9749586 -1.9258705 -6.4253809e-06 1.3829344e-38
1.0249202 -1.9256256 -6.4298511e-06 1.3829344e-38
1.0748738 -1.9259526 -6.2510371e-06 1.3829344e-38
1.12483 -1.9257081 -6.3180923e-06 1.3829344e-38
1.1747983 -1.9260355 -6.4745545e-06 1.3829344e-38
1.2250555 -1.9257098 -6.2239023e-06 1.3829344e-38
1.2750233 -1.9257878 -6.133997e-06 1.3829344e-38
1.3249801 -1.9257913 -6.2592235e-06 1.3829344e-38
1.3749382 -1.9258721 -6.274332e-06 1.3829344e-38
1.4112158 -1.9297169 -6.0200691e-06 1.3829344e-38
-1.3552094 -1.8927202 -4.8577785e-06 1.3829344e-38
-1.3240722 -1.8785449 -3.8014518e-06 1.3829344e-38
-1.2748417 -1.877671 -3.6557515e-06 1.3829344e-38
-1.2251884 -1.8775704 -3.3935776e-06 1.3829344e-38
-1.1752492 -1.877437 -3.2617691e-06 1.3829344e-38
-1.1250563 -1.8777417 -3.8621247e-06 1.3829344e-38
-1.0751218 -1.8776035 -3.7621426e-06 1.3829344e-38
-1.0251989 -1.8776058 -3.6852334e-06 1.3829344e-38
-0.97525746 -1.8778088 -4.0120976e-06 1.3829344e-38
-0.92480236 -1.8774734 -4.2388315e-06 1.3829344e-38
-0.87459582 -1.8778448 -4.6711903e-06 1.3829344e-38
-0.8249355 -1.877403 -5.0375538e-06 1.3829344e-38
-0.77500564 -1.8776737 -5.0503722e-06 1.3829344e-38
-0.72507298 -1.8774698 -4.6107075e-06 1.3829344e-38
-0.67514694 -1.8778093 -3.787779e-06 1.3829344e-38
-0.62521684 -1.8776046 -3.9992792e-06 1.3829344e-38
-0.57931131 -1.8777084 -4.5696893e-06 1.3829344e-38
0.57929152 -1.8774605 -6.4482815e-06 1.3829344e-38
0.62464994 -1.8778099 -6.5347199e-06 1.3829344e-38
0.67485458 -1.8777103 -6.7251794e-06 1.3829344e-38
0.72505367 -1.8776083 -6.8718387e-06 1.3829344e-38
0.77524918 -1.8775764 -6.8519976e-06 1.3829344e-38
0.82518262 -1.8777089 -6.5785389e-06 1.3829344e-38
0.87510616 -1.8775095 -6.7378614e-06 1.3829344e-38
0.92504203 -1.8775719 -6.8027039e-06 1.3829344e-38
0.97471005 -1.8776088 -6.6206021e-06 1.3829344e-38
1.0249015 -1.8777078 -6.6085063e-06 1.3829344e-38
1.075099 -1.8778123 -6.6680291e-06 1.3829344e-38
1.1250339 -1.8772675 -6.6731563e-06 1.3829344e-38
1.1752274 -1.8777112 -6.5882155e-06 1.3829344e-38
1.2254304 -1.8778107 -6.5321565e-06 1.3829344e-38
1.2753565 -1.877607 -6.6103476e-06 1.3829344e-38
1.3252919 -1.8775405 -6.5885565e-06 1.3829344e-38
1.3728542 -1.8793421 -6.6972639e-06 1.3829344e-38
1.4030234 -1.8977703 -6.0796738e-06 1.3829344e-38
-1.3134203 -1.8276898 -2.9244322e-06 1.3829344e-38
-1.2747684 -1.8248266 -3.1849124e-06 1.3829344e-38
-1.2246854 -1.8251153 -3.5221931e-06 1.3829344e-38
-1.174848 -1.8249395 -3.3991678e-06 1.3829344e-38
-1.1250149 -1.8248854 -3.6932388e-06 1.3829344e-38
-1.0751688 -1.8251145 -4.317159e-06 1.3829344e-38
-1.0250943 -1.8250018 -4.7282638e-06 1.3829344e-38
-0.97502548 -1.824887 -4.3784348e-06 1.3829344e-38
-0.92471546 -1.8251141 -3.8069707e-06 1.3829344e-38
-0.87487102 -1.8249421 -3.6580223e-06 1.3829344e-38
-0.82527041 -1.8252834 -3.3501153e-06 1.3829344e-38
-0.77519602 -1.8248857 -3.2331343e-06 1.3829344e-38
-0.72512573 -1.8250011 -4.2168895e-06 1.3829344e-38
-0.67504859 -1.8251164 -4.8073653e-06 1.3829344e-38
-0.62497723 -1.824944 -4.3205014e-06 1.3829344e-38
-0.57958394 -1.8249055 -4.3353816e-06 1.3829344e-38
0.57935929 -1.8251843 -6.9737434e-06 1.3829344e-38
0.62475181 -1.8250599 -6.717331e-06 1.3829344e-38
0.67483085 -1.8251163 -6.970432e-06 1.3829344e-38
0.72489828 -1.8248311 -6.9377556e-06 1.3829344e-38
0.77474022 -1.824946 -6.7269689e-06 1.3829344e-38
0.82481408 -1.8252305 -6.69466e-06 1.3829344e-38
0.87489164 -1.8251181 -7.1904369e-06 1.3829344e-38
0.92471892 -1.8247732 -7.1548066e-06 1.3829344e-38
0.97480124 -1.825117 -7.0178949e-06 1.3829344e-38
1.0251102 -1.824947 -7.0756842e-06 1.3829344e-38
1.0751817 -1.8250616 -7.2049202e-06 1.3829344e-38
1.1250207 -1.8249462 -7.4033469e-06 1.3829344e-38
1.1748588 -1.8250051 -7.3809492e-06 1.3829344e-38
1.225168 -1.8251169 -7.4251934e-06 1.3829344e-38
1.2752448 -1.8249469 -7.3842284e-06 1.3829344e-38
1.3248456 -1.8250592 -7.3628607e-06 1.3829344e-38
1.3612416 -1.8311899 -7.33553e-06 1.3829344e-38
-1.3037165 -1.7910757 -3.1590462e-06 1.3829344e-38
-1.2736638 -1.7753499 -3.3863298e-06 1.3829344e-38
-1.2247312 -1.7743642 -3.556816e-06 1.3829344e-38
-1.1746284 -1.774485 -3.4545858e-06 1.3829344e-38
-1.1247903 -1.7743938 -3.3833317e-06 1.3829344e-38
-1.0746952 -1.7742748 -4.2411471e-06 1.3829344e-38
-1.0248584 -1.7744857 -4.2940178e-06 1.3829344e-38
-0.97501832 -1.7745755 -4.7204421e-06 1.3829344e-38
-0.92467195 -1.7743044 -4.1042053e-06 1.3829344e-38
-0.87456709 -1.774484 -3.9053461e-06 1.3829344e-38
-0.82498604 -1.7744842 -4.130105e-06 1.3829344e-38
-0.77489519 -1.7741877 -4.1127205e-06 1.3829344e-38
-0.72479647 -1.774484 -3.8097303e-06 1.3829344e-38
-0.6749568 -1.7745136 -3.8319026e-06 1.3829344e-38
-0.62486297 -1.7743347 -4.337006e-06 1.3829344e-38
-0.57915419 -1.7744844 -4.167855e-06 1.3829344e-38
0.57925683 -1.7744869 -6.5267086e-06 1.3829344e-38
0.62496662 -1.7743958 -6.7310234e-06 1.3829344e-38
0.67505997 -1.7745774 -6.6216458e-06 1.3829344e-38
0.72515696 -1.7742772 -6.5712584e-06 1.3829344e-38
0.77525258 -1.774456 -6.5368476e-06 1.3829344e-38
0.82534832 -1.7743365 -6.8563777e-06 1.3829344e-38
0.87518722 -1.774487 -6.7017972e-06 1.3829344e-38
0.92476869 -1.7744871 -6.6682696e-06 1.3829344e-38
0.97487026 -1.7741897 -6.5443469e-06 1.3829344e-38
1.0252148 -1.7745166 -6.5896929e-06 1.3829344e-38
1.0750564 -1.774487 -6.4112246e-06 1.3829344e-38
1.124897 -1.7743367 -6.3647931e-06 1.3829344e-38
1.1749918 -1.7746381 -6.5134973e-06 1.3829344e-38
1.2253426 -1.7742492 -6.5954364e-06 1.3829344e-38
1.2754426 -1.7744867 -6.4795217e-06 1.3829344e-38
1.3223375 -1.7762239 -6.5267086e-06 1.3829344e-38
1.3524884 -1.7950219 -7.0333481e-06 1.3829344e-38
-1.2636341 -1.7296307 -3.5511821e-06 1.3829344e-38
-1.2247655 -1.7257828 -3.6675651e-06 1.3829344e-38
-1.1749811 -1.725731 -4.0043483e-06 1.3829344e-38
-1.1252054 -1.7257339 -4.1637336e-06 1.3829344e-38
-1.0752001 -1.7257324 -4.60513e-06 1.3829344e-38
-1.0251907 -1.725632 -4.0928521e-06 1.3829344e-38
-0.97518891 -1.7256292 -3.8329545e-06 1.3829344e-38
-0.92473072 -1.7257825 -3.9128076e-06 1.3829344e-38
-0.87472016 -1.725628 -3.8562566e-06 1.3829344e-38
-0.82516962 -1.7259344 -3.7749608e-06 1.3829344e-38
-0.7751652 -1.7254784 -3.9951219e-06 1.3829344e-38
-0.72515357 -1.7256805 -3.8393982e-06 1.3829344e-38
-0.6749301 -1.7257329 -3.5847936e-06 1.3829344e-38
-0.62469584 -1.7257825 -4.1197013e-06 1.3829344e-38
-0.57941896 -1.7257828 -4.3961736e-06 1.3829344e-38
0.57949758 -1.7257839 -7.051688e-06 1.3829344e-38
0.62522119 -1.7257851 -6.9673574e-06 1.3829344e-38
0.67523015 -1.72553 -6.8447807e-06 1.3829344e-38
0.72500741 -1.725733 -6.7412316e-06 1.3829344e-38
0.77501827 -1.7256337 -6.9409875e-06 1.3829344e-38
0.82502002 -1.7256318 -6.8905119e-06 1.3829344e-38
0.87503177 -1.7260892 -6.7219003e-06 1.3829344e-38
0.92479998 -1.7254783 -6.7635015e-06 1.3829344e-38
0.97481447 -1.7257839 -6.9013663e-06 1.3829344e-38
1.0250469 -1.7254802 -6.7294181e-06 1.3829344e-38
1.0750515 -1.7259371 -6.6660546e-06 1.3829344e-38
1.125055 -1.7255815 -6.7917076e-06 1.3829344e-38
1.1750617 -1.7258348 -6.8271484e-06 1.3829344e-38
1.2252921 -1.7254837 -6.6959433e-06 1.3829344e-38
1.2753009 -1.725732 -6.6497109e-06 1.3829344e-38
1.3111229 -1.7314115 -6.3569046e-06 1.3829344e-38
-1.2542864 -1.6924067 -4.7172821e-06 1.3829344e-38
-1.2237236 -1.677047 -3.8146973e-06 1.3829344e-38
-1.1757289 -1.6770357 -3.333445e-06 1.3829344e-38
-1.1244491 -1.6777782 -3.2447633e-06 1.3829344e-38
-1.0749151 -1.676092 -3.7822806e-06 1.3829344e-38
-1.0247704 -1.6760417 -3.5383005e-06 1.3829344e-38
-0.97484833 -1.6762332 -2.9812873e-06 1.3829344e-38
-0.92471802 -1.6758542 -2.829652e-06 1.3829344e-38
-0.87456977 -1.6761389 -3.424366e-06 1.3829344e-38
-0.82495421 -1.6757417 -3.6629763e-06 1.3829344e-38
-0.77495068 -1.6759999 -3.90881e-06 1.3829344e-38
-0.72481418 -1.6759962 -4.1174676e-06 1.3829344e-38
-0.67488754 -1.6758518 -4.450832e-06 1.3829344e-38
-0.62475377 -1.6762822 -4.2633005e-06 1.3829344e-38
-0.57902849 -1.6759661 -4.5414895e-06 1.3829344e-38
0.57929569 -1.6759682 -6.5513836e-06 1.3829344e-38
0.62501562 -1.6762837 -6.3348234e-06 1.3829344e-38
0.67515665 -1.6758544 -6.1809487e-06 1.3829344e-38
0.72508025 -1.6762394 -6.5238073e-06 1.3829344e-38
0.77499461 -1.6759487 -6.4510159e-06 1.3829344e-38
0.82491618 -1.675951 -6.2284216e-06 1.3829344e-38
0.87483472 -1.6761438 -6.4868841e-06 1.3829344e-38
0.92453557 -1.6761427 -6.7789638e-06 1.3829344e-38
0.97468197 -1.6759551 -6.7358433e-06 1.3829344e-38
1.0250378 -1.6760471 -6.5058734e-06 1.3829344e-38
1.07496 -1.6762859 -6.7105334e-06 1.3829344e-38
1.1248777 -1.6758556 -6.6039838e-06 1.3829344e-38
1.1750183 -1.6761431 -6.6286639e-06 1.3829344e-38
1.2253822 -1.6760005 -6.5491909e-06 1.3829344e-38
1.2723917 -1.6780922 -6.7015285e-06 1.3829344e-38
1.30196 -1.6951401 -6.377697e-06 1.3829344e-38
-1.2136509 -1.6303757 -2.9650946e-06 1.3829344e-38
-1.1751074 -1.6256605 -3.8590542e-06 1.3829344e-38
-1.1248484 -1.6257827 -4.0993209e-06 1.3829344e-38
-1.074975 -1.6256173 -4.1263311e-06 1.3829344e-38
-1.025105 -1.6258224 -3.7185905e-06 1.3829344e-38
-0.97504056 -1.6255994 -3.3695251e-06 1.3829344e-38
-0.92477649 -1.6258017 -2.9242956e-06 1.3829344e-38
-0.87490243 -1.6255542 -3.0861961e-06 1.3829344e-38
-0.8252306 -1.6259428 -4.0706736e-06 1.3829344e-38
-0.7751627 -1.6255993 -3.8389117e-06 1.3829344e-38
-0.72529137 -1.6256396 -3.46452e-06 1.3829344e-38
-0.67522687 -1.6257019 -3.9976699e-06 1.3829344e-38
-0.62477022 -1.6258024 -4.5061111e-06 1.3829344e-38
-0.57917953 -1.6255038 -4.5310994e-06 1.3829344e-38
0.57935274 -1.6257796 -6.6545522e-06 1.3829344e-38
0.62513226 -1.6257231 -6.6012144e-06 1.3829344e-38
0.67500651 -1.6255605 -6.8480149e-06 1.3829344e-38
0.72487521 -1.6257232 -6.695278e-06 1.3829344e-38
0.77494228 -1.6257849 -6.5731447e-06 1.3829344e-38
0.82501084 -1.62552 -6.6151842e-06 1.3829344e-38
0.87507433 -1.6259845 -6.7958536e-06 1.3829344e-38
0.92474747 -1.625724 -6.6955886e-06 1.3829344e-38
0.97462487 -1.6258036 -6.4079577e-06 1.3829344e-38
1.0248852 -1.6255195 -6.7390501e-06 1.3829344e-38
1.0749489 -1.6257846 -6.6664793e-06 1.3829344e-38
1.1250176 -1.6257236 -6.9057569e-06 1.3829344e-38
1.1748888 -1.6255609 -6.8722293e-06 1.3829344e-38
1.2251478 -1.6258048 -6.9425655e-06 1.3829344e-38
1.2611594 -1.6319401 -6.9369662e-06 1.3829344e-38
-1.2037961 -1.5924217 -3.7636075e-06 1.3829344e-38
-1.173269 -1.5760334 -4.1322628e-06 1.3829344e-38
-1.1249894 -1.5749332 -3.705575e-06 1.3829344e-38
-1.0750024 -1.5749327 -3.4588757e-06 1.3829344e-38
-1.0248287 -1.5747616 -3.0075321e-06 1.3829344e-38
-0.97484165 -1.5749519 -3.5480689e-06 1.3829344e-38
-0.92467189 -1.5747446 -3.9438405e-06 1.3829344e-38
-0.87468022 -1.5749321 -4.0897958e-06 1.3829344e-38
-0.82488513 -1.5747638 -3.7418977e-06 1.3829344e-38
-0.77490294 -1.5748363 -3.3324002e-06 1.3829344e-38
-0.72491664 -1.574913 -3.4361394e-06 1.3829344e-38
-0.67493069 -1.574801 -3.5143992e-06 1.3829344e-38
-0.62513518 -1.5749323 -3.699156e-06 1.3829344e-38
-0.57954443 -1.5747268 -3.7676698e-06 1.3829344e-38
0.57946825 -1.5747515 -6.1381747e-06 1.3829344e-38
0.62487549 -1.574936 -6.388701e-06 1.3829344e-38
0.67486429 -1.5748601 -6.7253909e-06 1.3829344e-38
0.72503793 -1.5747659 -6.5665208e-06 1.3829344e-38
0.77502269 -1.5748779 -6.5328509e-06 1.3829344e-38
0.82500762 -1.574802 -6.6347707e-06 1.3829344e-38
0.87480158 -1.5749359 -6.532669e-06 1.3829344e-38
0.92440706 -1.5749359 -6.4712303e-06 1.3829344e-38
0.97477633 -1.5747119 -6.6961816e-06 1.3829344e-38
1.0251397 -1.5749366 -6.4840683e-06 1.3829344e-38
1.074936 -1.574803 -6.4336618e-06 1.3829344e-38
1.1249211 -1.574878 -6.5428612e-06 1.3829344e-38
1.1749054 -1.5747646 -6.5283011e-06 1.3829344e-38
1.2217795 -1.5772012 -6.2584877e-06 1.3829344e-38
1.2525523 -1.5974749 -4.6491623e-06 1.3829344e-38
-1.1628168 -1.5284569 -3.0662193e-06 1.3829344e-38
-1.1248541 -1.523266 -3.5418404e-06 1.3829344e-38
-1.0742756 -1.5235534 -3.222819e-06 1.3829344e-38
-1.0254104 -1.5242484 -2.8418494e-06 1.3829344e-38
-0.97461039 -1.5253435 -2.5442916e-06 1.3829344e-38
-0.92510766 -1.5233586 -3.0537174e-06 1.3829344e-38
-0.87402123 -1.5227263 -3.3318997e-06 1.3829344e-38
-0.82490957 -1.5236877 -3.3954375e-06 1.3829344e-38
-0.77499932 -1.5237188 -3.8982248e-06 1.3829344e-38
-0.72509187 -1.5236874 -3.4432833e-06 1.3829344e-38
-0.67501467 -1.523688 -2.9810376e-06 1.3829344e-38
-0.62524182 -1.5235522 -3.073417e-06 1.3829344e-38
-0.57718748 -1.5224092 -3.4288123e-06 1.3829344e-38
-0.52479494 -1.5093775 -4.1847798e-06 1.3829344e-38
-0.47504449 -1.5093766 -4.0762461e-06 1.3829344e-38
-0.42493701 -1.5095167 -3.8480057e-06 1.3829344e-38
-0.37482023 -1.5093758 -2.9873493e-06 1.3829344e-38
-0.3250795 -1.5094465 -3.5709409e-06 1.3829344e-38
-0.2749663 -1.5094467 -4.8963461e-06 1.3829344e-38
-0.22523282 -1.5093058 -4.9453793e-06 1.3829344e-38
-0.17510176 -1.5095832 -4.046205e-06 1.3829344e-38
-0.12501164 -1.5093038 -3.4083021e-06 1.3829344e-38
-0.074514948 -1.5094465 -3.9287975e-06 1.3829344e-38
-0.024401421 -1.5094463 -4.1283092e-06 1.3829344e-38
0.025712118 -1.5094478 -5.20604e-06 1.3829344e-38
0.075825669 -1.5094471 -4.8784109e-06 1.3829344e-38
0.12484727 -1.5092356 -4.0371028e-06 1.3829344e-38
0.17491761 -1.5096536 -3.3974648e-06 1.3829344e-38
0.22506535 -1.509236 -4.2470533e-06 1.3829344e-38
0.27515391 -1.509656 -5.9815015e-06 1.3829344e-38
0.32528383 -1.5092381 -6.6863959e-06 1.3829344e-38
0.37501839 -1.509519 -6.5796412e-06 1.3829344e-38
0.4251315 -1.5093799 -6.7861642e-06 1.3829344e-38
0.47524861 -1.5095183 -6.520926e-06 1.3829344e-38
0.5253557 -1.5093796 -6.5757949e-06 1.3829344e-38
0.57725579 -1.5225635 -6.2666154e-06 1.3829344e-38
0.62480289 -1.5234312 -6.0877833e-06 1.3829344e-38
0.67487764 -1.5238519 -6.13364e-06 1.3829344e-38
0.72512549 -1.5235296 -6.128002e-06 1.3829344e-38
0.77503651 -1.5237554 -6.2372587e-06 1.3829344e-38
0.82494313 -1.5234666 -5.9902668e-06 1.3829344e-38
0.87519032 -1.5239171 -6.1666642e-06 1.3829344e-38
0.92475581 -1.5235924 -6.4546862e-06 1.3829344e-38
0.97450072 -1.5235966 -6.4028991e-06 1.3829344e-38
1.0247449 -1.5237547 -6.2670028e-06 1.3829344e-38
1.0748237 -1.5235642 -6.3261468e-06 1.3829344e-38
1.1248993 -1.5238209 -6.2515946e-06 1.3829344e-38
1.1749786 -1.5235306 -6.2270747e-06 1.3829344e-38
1.2102783 -1.5305307 -6.0153006e-06 1.3829344e-38
-1.1535449 -1.491654 -4.0054319e-06 1.3829344e-38
-1.1235728 -1.4758666 -3.6983263e-06 1.3829344e-38
-1.0752606 -1.4745183 -3.5875905e-06 1.3829344e-38
-1.0251629 -1.4745193 -3.1838451e-06 1.3829344e-38
-0.97505844 -1.4748199 -3.1742736e-06 1.3829344e-38
-0.92469764 -1.4756659 -3.4598634e-06 1.3829344e-38
-0.87486053 -1.4747543 -3.9913034e-06 1.3829344e-38
-0.82512742 -1.4744185 -4.0800901e-06 1.3829344e-38
-0.77502751 -1.4747185 -3.4431471e-06 1.3829344e-38
-0.72492808 -1.474486 -2.9854532e-06 1.3829344e-38
-0.6748271 -1.4746524 -3.4657708e-06 1.3829344e-38
-0.62509459 -1.4745497 -3.9268425e-06 1.3829344e-38
-0.57535988 -1.4747206 -3.8434118e-06 1.3829344e-38
-0.52507561 -1.4745373 -3.7671864e-06 1.3829344e-38
-0.4747965 -1.4745528 -3.8094763e-06 1.3829344e-38
-0.42487302 -1.4745353 -3.7454506e-06 1.3829344e-38
-0.37496176 -1.4746521 -3.9138931e-06 1.3829344e-38
-0.32485816 -1.4746546 -4.3115479e-06 1.3829344e-38
-0.2749466 -1.474535 -4.1065846e-06 1.3829344e-38
-0.22502419 -1.4746203 -3.8599446e-06 1.3829344e-38
-0.17492644 -1.4743183 -3.9652318e-06 1.3829344e-38
-0.12482108 -1.4750201 -4.2001698e-06 1.3829344e-38
-0.075470172 -1.4743097 -4.5344345e-06 1.3829344e-38
-0.025541663 -1.4746705 -4.8892839e-06 1.3829344e-38
0.025657056 -1.4746697 -4.8330853e-06 1.3829344e-38
0.075217322 -1.4745142 -4.1623152e-06 1.3829344e-38
0.1245734 -1.4748174 -4.0265295e-06 1.3829344e-38
0.17504862 -1.4743185 -4.6561236e-06 1.3829344e-38
0.22514057 -1.4746221 -5.1581947e-06 1.3829344e-38
0.27506459 -1.4745352 -4.9436794e-06 1.3829344e-38
0.32478991 -1.4748054 -5.3635413e-06 1.3829344e-38
0.37471241 -1.4745214 -6.6722396e-06 1.3829344e-38
0.42481014 -1.4745221 -6.7131364e-06 1.3829344e-38
0.47509533 -1.4747062 -6.4649444e-06 1.3829344e-38
0.52519542 -1.4745029 -6.6222515e-06 1.3829344e-38
0.57511222 -1.4747548 -6.5225754e-06 1.3829344e-38
0.62520999 -1.4745218 -6.5391082e-06 1.3829344e-38
0.67512846 -1.474538 -6.4855112e-06 1.3829344e-38
0.72486401 -1.4746052 -6.6275106e-06 1.3829344e-38
0.77496254 -1.4746054 -6.44594e-06 1.3829344e-38
0.82506502 -1.4745697 -6.3812031e-06 1.3829344e-38
0.87479389 -1.4746047 -6.5249556e-06 1.3829344e-38
0.92526376 -1.4746714 -6.4117567e-06 1.3829344e-38
0.97554606 -1.4745866 -6.2960166e-06 1.3829344e-38
1.0252835 -1.4745215 -6.5225754e-06 1.3829344e-38
1.075014 -1.4746537 -6.6474631e-06 1.3829344e-38
1.1249325 -1.4746062 -6.6558518e-06 1.3829344e-38
1.1714507 -1.4764767 -6.5952017e-06 1.3829344e-38
1.2009008 -1.4953719 -6.7949295e-06 1.3829344e-38
-1.1128722 -1.4303844 -3.2476889e-06 1.3829344e-38
-1.0751671 -1.4258132 -3.4679726e-06 1.3829344e-38
-1.0249877 -1.4251111 -3.2379241e-06 1.3829344e-38
-0.97488612 -1.4252987 -3.1008524e-06 1.3829344e-38
-0.924631 -1.4254415 -3.1562079e-06 1.3829344e-38
-0.87469649 -1.4259251 -3.5269761e-06 1.3829344e-38
-0.82486731 -1.4253761 -3.6862082e-06 1.3829344e-38
-0.77490985 -1.4254392 -3.5663445e-06 1.3829344e-38
-0.72495377 -1.4251651 -3.2686187e-06 1.3829344e-38
-0.67513728 -1.4254544 -3.2778985e-06 1.3829344e-38
-0.62517756 -1.4256235 -3.9339066e-06 1.3829344e-38
-0.57496911 -1.4264417 -4.0461491e-06 1.3829344e-38
-0.52484334 -1.4261571 -3.8704316e-06 1.3829344e-38
-0.47425383 -1.4259906 -3.5949051e-06 1.3829344e-38
-0.42492196 -1.4251906 -3.5355904e-06 1.3829344e-38
-0.37496495 -1.4254407 -3.8778498e-06 1.3829344e-38
-0.32500714 -1.4253745 -3.944614e-06 1.3829344e-38
-0.27565399 -1.4259198 -3.9590814e-06 1.3829344e-38
-0.22450913 -1.4258697 -3.7899558e-06 1.3829344e-38
-0.17499222 -1.4250578 -3.7333209e-06 1.3829344e-38
-0.12489113 -1.425298 -4.1257699e-06 1.3829344e-38
-0.074635774 -1.4254415 -4.2347683e-06 1.3829344e-38
-0.024528325 -1.4254413 -4.1233643e-06 1.3829344e-38
0.02557911 -1.4254407 -3.7785087e-06 1.3829344e-38
0.075686514 -1.4254401 -3.7600596e-06 1.3829344e-38
0.12549877 -1.425175 -4.0868676e-06 1.3829344e-38
0.17499913 -1.4252828 -4.5148722e-06 1.3829344e-38
0.22480652 -1.425441 -4.3915852e-06 1.3829344e-38
0.2749128 -1.4252605 -4.2730853e-06 1.3829344e-38
0.32501727 -1.4254408 -4.0630498e-06 1.3829344e-38
0.37512404 -1.4251807 -5.460211e-06 1.3829344e-38
0.42507806 -1.4254302 -6.5936301e-06 1.3829344e-38
0.47488427 -1.4253247 -6.8313348e-06 1.3829344e-38
0.52499098 -1.4253527 -6.960694e-06 1.3829344e-38
0.57509631 -1.4253523 -6.9798111e-06 1.3829344e-38
0.62505364 -1.4254433 -6.8538247e-06 1.3829344e-38
0.6750108 -1.4252987 -7.0126471e-06 1.3829344e-38
0.72496402 -1.4252357 -6.829699e-06 1.3829344e-38
0.77492046 -1.4253255 -6.6571606e-06 1.3829344e-38
0.82487661 -1.4254434 -6.7523547e-06 1.3829344e-38
0.87513226 -1.4253783 -6.6460943e-06 1.3829344e-38
0.92553288 -1.4253262 -6.6298703e-06 1.3829344e-38
0.97534561 -1.4251636 -6.6865573e-06 1.3829344e-38
1.0249983 -1.4254428 -6.7190044e-06 1.3829344e-38
1.0749567 -1.4254571 -6.8077784e-06 1.3829344e-38
1.1249131 -1.4251829 -7.0184469e-06 1.3829344e-38
1.1602799 -1.4322418 -7.3293158e-06 1.3829344e-38
-1.10259 -1.3897586 -2.6226044e-06 1.3829344e-38
-1.0727515 -1.3737277 -3.17185e-06 1.3829344e-38
-1.0246931 -1.3710164 -3.0969752e-06 1.3829344e-38
-0.97509962 -1.3738685 -2.7887961e-06 1.3829344e-38
-0.92509806 -1.3740767 -2.9140815e-06 1.3829344e-38
-0.87491095 -1.3742515 -2.8043985e-06 1.3829344e-38
-0.82537091 -1.3727006 -3.2830239e-06 1.3829344e-38
-0.7747072 -1.3725191 -3.4496188e-06 1.3829344e-38
-0.72523206 -1.3743515 -3.2995686e-06 1.3829344e-38
-0.67515618 -1.3739448 -3.2319742e-06 1.3829344e-38
-0.62485379 -1.3746107 -3.516674e-06 1.3829344e-38
-0.57491046 -1.3749381 -3.3036918e-06 1.3829344e-38
-0.52512026 -1.3746597 -3.4226821e-06 1.3829344e-38
-0.47472733 -1.3731227 -3.1950945e-06 1.3829344e-38
-0.42510524 -1.3740653 -3.25677e-06 1.3829344e-38
-0.37482914 -1.3739074 -3.0505175e-06 1.3829344e-38
-0.32535753 -1.3735181 -3.3530323e-06 1.3829344e-38
-0.27487126 -1.3737344 -3.261873e-06 1.3829344e-38
-0.22501846 -1.3739555 -3.309975e-06 1.3829344e-38
-0.17517304 -1.3739306 -3.7533498e-06 1.3829344e-38
-0.12569126 -1.3730723 -3.6983956e-06 1.3829344e-38
-0.075338699 -1.3744311 -3.2456808e-06 1.3829344e-38
-0.024650348 -1.3736587 -3.3493745e-06 1.3829344e-38
0.025497725 -1.37404 -3.3854019e-06 1.3829344e-38
0.074613824 -1.3736504 -3.7619561e-06 1.3829344e-38
0.12460013 -1.3737521 -3.8975959e-06 1.3829344e-38
0.17487182 -1.374225 -4.3103569e-06 1.3829344e-38
0.2247538 -1.3738859 -4.20997e-06 1.3829344e-38
0.27566552 -1.3737012 -4.154263e-06 1.3829344e-38
0.32512391 -1.3738475 -4.440546e-06 1.3829344e-38
0.37510756 -1.373956 -4.231581e-06 1.3829344e-38
0.42495164 -1.3739569 -5.2912192e-06 1.3829344e-38
0.47508049 -1.3739593 -6.2078411e-06 1.3829344e-38
0.52521509 -1.3738855 -6.3578286e-06 1.3829344e-38
0.57505339 -1.3740325 -6.2309509e-06 1.3829344e-38
0.62489325 -1.3740056 -6.1891233e-06 1.3829344e-38
0.675026 -1.3738388 -6.2850168e-06 1.3829344e-38
0.72515875 -1.3739575 -6.2121285e-06 1.3829344e-38
0.77499914 -1.374007 -6.1117416e-06 1.3829344e-38
0.82498437 -1.3739451 -6.2446261e-06 1.3829344e-38
0.87497073 -1.3737878 -6.2030658e-06 1.3829344e-38
0.92524683 -1.3741161 -5.9926647e-06 1.3829344e-38
0.97523785 -1.3739076 -6.0606285e-06 1.3829344e-38
1.0249286 -1.3739936 -6.1933383e-06 1.3829344e-38
1.0750613 -1.3739711 -5.9452168e-06 1.3829344e-38
1.1211015 -1.3762858 -6.0524258e-06 1.3829344e-38
1.1512425 -1.3972106 -6.1988831e-06 1.3829344e-38
-1.0635732 -1.3349371 -3.112687e-06 1.3829344e-38
-1.023971 -1.3323998 -3.0696392e-06 1.3829344e-38
-0.97442973 -1.3307934 -2.8074335e-06 1.3829344e-38
-0.92540652 -1.3294929 -3.0844062e-06 1.3829344e-38
-0.87562597 -1.3294258 -3.9061297e-06 1.3829344e-38
-0.82333183 -1.3281169 -3.6041313e-06 1.3829344e-38
-0.77427304 -1.3296046 -3.5812047e-06 1.3829344e-38
-0.7255196 -1.3310012 -3.7075952e-06 1.3829344e-38
-0.6756621 -1.331198 -3.946679e-06 1.3829344e-38
-0.6252014 -1.3295629 -3.7665952e-06 1.3829344e-38
-0.5740881 -1.3322872 -3.9349902e-06 1.3829344e-38
-0.52415133 -1.3307364 -3.7782449e-06 1.3829344e-38
-0.47487226 -1.3308455 -3.674397e-06 1.3829344e-38
-0.42514914 -1.3309715 -3.7655575e-06 1.3829344e-38
-0.37504292 -1.3307247 -3.8137941e-06 1.3829344e-38
-0.3242847 -1.3321582 -3.862594e-06 1.3829344e-38
-0.27431387 -1.3314792 -3.2054054e-06 1.3829344e-38
-0.224912 -1.3309097 -3.0226779e-06 1.3829344e-38
-0.17544547 -1.3304293 -2.7247838e-06 1.3829344e-38
-0.12537691 -1.3309443 -2.7164083e-06 1.3829344e-38
-0.075105853 -1.3306047 -3.1157438e-06 1.3829344e-38
-0.023547098 -1.33091 -3.3546239e-06 1.3829344e-38
0.025429426 -1.3309082 -3.399357e-06 1.3829344e-38
0.07515604 -1.3309071 -3.47473e-06 1.3829344e-38
0.1252715 -1.3306892 -3.1339005e-06 1.3829344e-38
0.17480391 -1.3311207 -3.3053484e-06 1.3829344e-38
0.22582139 -1.3305843 -4.0531158e-06 1.3829344e-38
0.275013 -1.3308778 -4.0088639e-06 1.3829344e-38
0.32492048 -1.3309388 -3.7312507e-06 1.3829344e-38
0.37420505 -1.3310077 -4.3284326e-06 1.3829344e-38
0.42549449 -1.3308786 -3.9476613e-06 1.3829344e-38
0.47505617 -1.330971 -5.9017766e-06 1.3829344e-38
0.5249694 -1.330789 -6.7597084e-06 1.3829344e-38
0.57508123 -1.3309114 -6.6757202e-06 1.3829344e-38
0.62480164 -1.3309112 -6.7710876e-06 1.3829344e-38
0.67471945 -1.3308202 -6.8066697e-06 1.3829344e-38
0.72482741 -1.3308504 -6.5874506e-06 1.3829344e-38
0.77493358 -1.3307892 -6.7199721e-06 1.3829344e-38
0.82503933 -1.3310037 -6.74579e-06 1.3829344e-38
0.87514627 -1.3308188 -6.5393519e-06 1.3829344e-38
0.92544055 -1.3308188 -6.6125031e-06 1.3829344e-38
0.97536039 -1.3309104 -6.7380756e-06 1.3829344e-38
1.0250871 -1.3309104 -6.5528711e-06 1.3829344e-38
1.0751904 -1.3307284 -6.5429645e-06 1.3829344e-38
1.1105715 -1.3338073 -6.5898894e-06 1.3829344e-38
-0.55444837 -2.0661757 0.00040951371 8.4895902e-39
-0.5260008 -2.0648291 0.0020736218 8.397033e-39
-0.4748455 -2.067332 0.0023771054 8.397033e-39
-0.4250837 -2.0670333 0.0024350658 8.397033e-39
-0.37532821 -2.0673337 0.0023752884 8.397033e-39
-0.32480112 -2.0673351 0.0023743168 8.3973932e-39
-0.27427396 -2.0673363 0.0023733487 8.3973932e-39
-0.22448988 -2.0676363 0.0023137592 8.4892286e-39
-0.17474505 -2.0673387 0.0023715424 8.4892286e-39
-0.12498318 -2.0673411 0.0023704395 8.4892286e-39
-0.076026581 -2.0670414 0.0024284758 8.4892286e-39
0.047263771 -2.067344 0.0023673375 8.4895888e-39
0.074824244 -2.0673444 0.0023668245 8.4895888e-39
0.12535188 -2.0673456 0.0023658602 8.4895902e-39
0.17587951 -2.067347 0.0023649822 8.5814257e-39
0.22566357 -2.0670485 0.0024228878 8.4899489e-39
0.27539828 -2.0673487 0.0023630641 8.5817844e-39
0.32516053 -2.0673513 0.0023619644 8.5817858e-39
0.37492296 -2.0673518 0.0023612543 8.5817858e-39
0.42545086 -2.067353 0.002360279 8.5817858e-39
0.47522008 -2.0676527 0.002300594 8.5817858e-39
0.52591294 -2.0648527 0.002111115 8.6743416e-39
0.55419225 -2.0645812 0.00044579167 8.8587328e-39
-0.55443454 -2.0275648 0.00043256467 8.4895888e-39
-0.52451575 -2.0245309 0.003371601 8.3044773e-39
-0.47505981 -2.0247314 0.0078252731 7.9353304e-39
-0.42583424 -2.0252299 0.01021422 7.6587435e-39
-0.37529612 -2.0249474 0.010702382 7.6583834e-39
-0.32521439 -2.0250185 0.010687619 7.6587421e-39
-0.27550325 -2.0250189 0.01068668 7.6587435e-39
-0.22541463 -2.0248129 0.010726587 7.6587435e-39
-0.1749603 -2.0246785 0.01075242 7.750579e-39
-0.1248743 -2.0250227 0.010683887 7.750579e-39
-0.075163066 -2.0250249 0.010682946 7.750579e-39
0.046855699 -2.025027 0.010680716 7.7509391e-39
0.073971048 -2.025028 0.010680184 7.7509391e-39
0.12407003 -2.0246847 0.010746854 7.7509391e-39
0.1745197 -2.024822 0.010719114 7.842776e-39
0.22497739 -2.0249615 0.010691191 7.8431348e-39
0.27506477 -2.0250325 0.010676438 7.8431348e-39
0.32477647 -2.0250328 0.010675494 7.8431348e-39
0.37448823 -2.0250349 0.010674574 7.8431362e-39
0.4250696 -2.0252867 0.010213405 8.1200832e-39
0.47514012 -2.0252538 0.0077821142 8.397033e-39
0.5245387 -2.024363 0.0033591676 8.6739814e-39
0.55441433 -2.0270357 0.00042465099 8.8587328e-39
-0.55444086 -1.9737055 0.00043180783 8.4895888e-39
-0.52537709 -1.9745977 0.0032864555 8.3044773e-39
-0.47578716 -1.9746354 0.0081572114 7.8431362e-39
-0.42551252 -1.9752041 0.013095199 7.4736306e-39
-0.37577197 -1.9726784 0.017731767 7.104125e-39
-0.32559544 -1.9723182 0.020492787 6.8275367e-39
-0.27490154 -1.975 0.020513149 6.8275367e-39
-0.22483107 -1.9745336 0.020604059 6.8275367e-39
-0.17520222 -1.9750034 0.020511128 6.8275381e-39
-0.12554538 -1.9754754 0.020417942 6.9193736e-39
-0.074630626 -1.9745448 0.0205999 6.9193736e-39
0.046373375 -1.9750086 0.020506978 6.9197337e-39
0.07475587 -1.9747052 0.020566044 6.9197323e-39
0.12567584 -1.9753295 0.020442775 6.9197337e-39
0.17488773 -1.9750112 0.020504605 6.9197337e-39
0.22452533 -1.9745444 0.02059575 6.9197337e-39
0.27503294 -1.9751686 0.020472404 7.0119294e-39
0.32572106 -1.9721494 0.020510551 7.4736306e-39
0.37579077 -1.9729598 0.017715333 7.9353318e-39
0.42568871 -1.9752353 0.013069425 8.2126404e-39
0.47565889 -1.9749032 0.008161149 8.3973932e-39
0.52553624 -1.9742844 0.0032620593 8.6739814e-39
0.55453438 -1.9750953 0.00041375955 8.7665386e-39
-1.1304061 -1.906327 3.5762787e-07 1.3829344e-38
-0.98103452 -1.919279 8.3446503e-07 1.3829344e-38
-0.85215414 -1.9323554 0 1.3829344e-38
-0.82586366 -1.9323552 1.1920929e-07 1.3829344e-38
-0.55457538 -1.9263873 0.00041643472 8.4895888e-39
-0.52465785 -1.9242702 0.0033565315 8.2126404e-39
-0.47408837 -1.9249129 0.0083234943 7.8431348e-39
-0.42428911 -1.9249934 0.013214787 7.3817937e-39
-0.37481439 -1.9248682 0.018074235 7.0119294e-39
-0.32512295 -1.9247901 0.022954933 6.6424238e-39
-0.27562711 -1.9250811 0.027373606 6.2732783e-39
-0.2259596 -1.9247261 0.029869646 6.0885255e-39
-0.17506528 -1.9271911 0.029903984 6.0885269e-39
-0.12472828 -1.9263859 0.030061349 6.0885269e-39
-0.075060703 -1.9274521 0.029851206 6.0885269e-39
-0.049481049 -1.9183517 0.031638801 5.9041343e-39
0.045909937 -1.9269499 0.029948315 6.0888871e-39
0.074167162 -1.9269505 0.029947804 6.0888871e-39
0.12490187 -1.9264483 0.030045748 6.0888871e-39
0.17486279 -1.9274418 0.029849978 6.2732783e-39
0.22618811 -1.9245107 0.029894572 6.8275367e-39
0.27588445 -1.9254096 0.027342537 7.4736306e-39
0.32505345 -1.9246386 0.022955164 7.7509391e-39
0.37469697 -1.9247853 0.018078875 7.9356919e-39
0.4244284 -1.9251531 0.013194078 8.2122802e-39
0.47416845 -1.924956 0.0083084404 8.3973932e-39
0.52442628 -1.9244788 0.00337194 8.6739814e-39
0.55422026 -1.924849 0.00044545761 8.7665386e-39
-0.55390388 -1.8771569 0.00048343092 8.4895888e-39
-0.52502418 -1.8740975 0.0033199748 8.2126404e-39
-0.47486049 -1.8746928 0.0082470644 7.8431348e-39
-0.4244945 -1.8750749 0.013194042 7.3814349e-39
-0.37481758 -1.8749021 0.018073333 7.0119294e-39
-0.32497138 -1.8748696 0.022969251 6.6424238e-39
-0.27493224 -1.8748015 0.027884122 6.1810827e-39
-0.22500752 -1.8747377 0.032787725 5.8115771e-39
-0.17579938 -1.8745294 0.037241507 5.4420729e-39
-0.12608644 -1.873906 0.039812095 5.1654846e-39
-0.075609408 -1.8762418 0.039911874 5.1654846e-39
-0.048271272 -1.8765334 0.039854188 5.2573215e-39
0.047553215 -1.8765354 0.039852489 5.2576802e-39
0.075235888 -1.8765354 0.039852124 5.5342699e-39
0.12497877 -1.8743824 0.039799772 6.2732797e-39
0.17583358 -1.8741699 0.037263114 7.0119294e-39
0.22531649 -1.874509 0.032752771 7.2892379e-39
0.27526075 -1.8749797 0.027846726 7.5658262e-39
0.32489622 -1.8751608 0.022971338 7.750579e-39
0.37470821 -1.8750145 0.018078636 7.9356919e-39
0.42462638 -1.8749547 0.013175503 8.2122802e-39
0.47496191 -1.8749843 0.0082313558 8.3973918e-39
0.52535391 -1.8741748 0.0032816925 8.6739814e-39
0.55444962 -1.8772242 0.00042374432 8.7665372e-39
-1.3180919 -1.8433496 5.9604645e-07 1.3829344e-38
-1.2990083 -1.8433496 5.9604645e-07 1.3829344e-38
-1.149439 -1.8311002 3.5762787e-07 1.3829344e-38
-0.55487579 -1.8246855 0.00038733747 8.4895888e-39
-0.52507097 -1.8246219 0.0033147943 8.2126404e-39
-0.47546202 -1.8246552 0.008187403 7.8431348e-39
-0.42548713 -1.8248473 0.013095959 7.3814349e-39
-0.37490261 -1.8248911 0.0180644 7.0119294e-39
-0.32467631 -1.8248763 0.022997668 6.5505883e-39
-0.27481383 -1.8250829 0.027895169 6.1810827e-39
-0.2249677 -1.8245841 0.032791089 5.8112184e-39
-0.17454313 -1.8244095 0.037743781 5.3498773e-39
-0.1239529 -1.8246783 0.042712782 4.9803717e-39
-0.073919713 -1.8244281 0.047224388 4.519032e-39
-0.047214042 -1.8399874 0.047033746 4.6112262e-39
0.04716875 -1.8399884 0.047032911 5.8115771e-39
0.076226361 -1.8246347 0.047040287 6.5502281e-39
0.12551935 -1.8242618 0.042556345 6.8275367e-39
0.17506452 -1.8245199 0.037689257 7.104125e-39
0.22508538 -1.8247852 0.032776017 7.2892379e-39
0.2750597 -1.8247943 0.027867353 7.4739907e-39
0.32551554 -1.8249558 0.022911374 7.750579e-39
0.37569511 -1.8250593 0.017982561 7.9356919e-39
0.42571113 -1.8249608 0.013069801 8.2122802e-39
0.47554657 -1.824903 0.0081748078 8.3973918e-39
0.52463329 -1.8247428 0.0033533343 8.5821445e-39
0.55441397 -1.8246408 0.00042817989 8.7665372e-39
-0.55420136 -1.7739975 0.00045300275 8.4892286e-39
-0.52581352 -1.7746599 0.0032413078 8.2126404e-39
-0.47555348 -1.7747635 0.0081778597 7.8431348e-39
-0.42486739 -1.774588 0.01315627 7.3814349e-39
-0.37458274 -1.7746823 0.018095242 7.0119294e-39
-0.32439172 -1.7748172 0.023025045 6.5505883e-39
-0.27456784 -1.7751031 0.027918765 6.1810827e-39
-0.22488579 -1.7744933 0.032798551 5.7193829e-39
-0.17503978 -1.7746711 0.037694424 5.3498773e-39
-0.12586492 -1.7747645 0.042524084 4.8881761e-39
-0.075927325 -1.7738725 0.046954069 4.2417234e-39
-0.025554778 -1.7621683 0.047394738 4.0573308e-39
0.026070217 -1.7614648 0.047315035 4.9803731e-39
0.07517492 -1.7736021 0.047002152 6.4580325e-39
0.12505487 -1.7744281 0.042602204 6.8275367e-39
0.17467029 -1.7744915 0.037728809 7.0122895e-39
0.22461988 -1.7748371 0.03282259 7.2888778e-39
0.27434611 -1.7750816 0.027938275 7.4739907e-39
0.3241151 -1.7746739 0.023049794 7.750579e-39
0.37408328 -1.7748072 0.018141771 7.9356905e-39
0.42453092 -1.7747326 0.013186597 8.2122802e-39
0.47487736 -1.7748123 0.0082414076 8.397033e-39
0.52555925 -1.7747886 0.0032632581 8.5821445e-39
0.55432039 -1.7740135 0.00043824315 8.7665372e-39
-0.55448961 -1.7239355 0.00042415262 8.4892286e-39
-0.52488536 -1.7246612 0.0033318794 8.2126404e-39
-0.4750157 -1.724728 0.0082300976 7.842776e-39
-0.42508736 -1.7245562 0.013134088 7.3814349e-39
-0.37519234 -1.7248209 0.01803479 7.0119294e-39
-0.32522848 -1.724525 0.02294226 6.5505883e-39
-0.27503327 -1.7249436 0.027872475 6.180724e-39
-0.22450699 -1.724739 0.032835003 5.7193815e-39
-0.17463621 -1.7228084 0.037142299 5.1651245e-39
-0.12435217 -1.7232255 0.039493944 4.795979e-39
-0.074961402 -1.7231359 0.039785765 4.7956203e-39
-0.024710778 -1.7239513 0.039946072 4.7037848e-39
0.025439676 -1.7231363 0.039785948 4.795979e-39
0.074784905 -1.723135 0.039786067 5.0732876e-39
0.12435927 -1.7233835 0.039509002 5.9963299e-39
0.17464663 -1.7225889 0.037139144 6.9193736e-39
0.22446761 -1.7247398 0.032838412 7.2888778e-39
0.27516431 -1.7250103 0.02785877 7.4739907e-39
0.32532051 -1.7245361 0.022932274 7.750579e-39
0.37547269 -1.7248421 0.018006163 7.9353318e-39
0.42516485 -1.7245656 0.013125194 8.1204447e-39
0.47520119 -1.7246255 0.00821047 8.397033e-39
0.52502769 -1.7245388 0.0033163377 8.5821445e-39
0.55435836 -1.7250534 0.00043534636 8.7665372e-39
-1.1586145 -1.6546081 7.1525574e-07 1.3829344e-38
-1.1329918 -1.6546079 8.046627e-07 1.3829344e-38
-0.82019782 -1.6978793 0 1.3829344e-38
-0.55435318 -1.6756967 0.00043697489 8.4892286e-39
